ply
format ascii 1.0
element vertex 1143
property float x
property float y
property float z
property uchar red
property uchar green
property uchar blue
end_header
 -0.20964 -0.138979   1.49582 255 255 255
-0.219279  -0.21753   1.51383 255 255 255
0.233703 -1.57321  5.43829 255 255 255
0.229952 -1.77002  5.47763 255 255 255
 1.39812 -1.32939  4.96399 255 255 255
0.732604  -1.5444  5.22608 255 255 255
-0.192693  0.401657   1.48322 255 255 255
0.756961 -1.52899  5.18903 255 255 255
0.446089  -1.7192  5.60442 255 255 255
 1.38103 -1.29007  4.90629 255 255 255
  0.168541 -0.0108304    1.60945 255 255 255
0.788777 -1.56038  5.20985 255 255 255
-0.160821  0.436141   1.49774 255 255 255
0.872327 -1.54807  5.17828 255 255 255
0.471868 -1.32586  5.22198 255 255 255
 1.35299 -1.51333  4.99156 255 255 255
0.212098 -1.36017  5.45674 255 255 255
-0.0724085  0.0409835    1.47435 255 255 255
0.273993  -1.5788  5.43787 255 255 255
0.019275 0.143805  1.48594 255 255 255
  -0.03121 -0.0748312    1.47282 255 255 255
0.238973 -1.46014  5.44606 255 255 255
0.867411 -1.39861  5.17049 255 255 255
-0.0720091 -0.0312582     1.4786 255 255 255
0.813398 -1.37873  5.16505 255 255 255
-0.0955377  -0.104687    1.47273 255 255 255
 -0.250431 -0.0112859    1.51792 255 255 255
0.822222 -1.45435  5.16784 255 255 255
-0.0900458 -0.0934052    1.47784 255 255 255
0.750577 -1.34084  5.18102 255 255 255
0.333093 -1.49612  5.35851 255 255 255
 1.51232 -1.21692  4.86217 255 255 255
0.711427 -1.39674  5.25021 255 255 255
0.200694 -1.60927  5.47762 255 255 255
0.702485 -1.28404  5.20766 255 255 255
 0.38869 -1.78057  5.52272 255 255 255
0.150118 -1.39562  5.55872 255 255 255
0.204757 -1.51709  5.44496 255 255 255
0.287095 -1.77414  5.51169 255 255 255
 1.47122 -1.23651  4.84906 255 255 255
-0.0168341  -0.212868    1.49147 255 255 255
 1.45356 -1.29367  4.97025 255 255 255
-0.260495  0.423102   1.40667 255 255 255
 0.71949 -1.44713  5.22192 255 255 255
 1.28991 -1.44564  5.10287 255 255 255
-1.55127 -1.77911   3.0322 255 255 255
  0.158562 -0.0193086    1.62834 255 255 255
-0.106105  0.473444   1.51606 255 255 255
-1.54455 -1.64303  3.05051 255 255 255
-1.99498 -1.78488  1.96306 255 255 255
-1.86493 -1.84054   2.1156 255 255 255
-0.177947  0.461085   1.46013 255 255 255
-1.80578 -1.77043  1.92387 255 255 255
-1.90644 -2.09924  2.70831 255 255 255
-1.96712 -1.71531  1.85838 255 255 255
  0.136917 -0.0696789    1.54709 255 255 255
-1.81014 -1.87416  1.93736 255 255 255
   0.100367 -0.00774406     1.55241 255 255 255
 0.0791897 -0.0102544    1.52208 255 255 255
-1.86884 -1.74391   2.6487 255 255 255
-1.86335 -1.81858  1.83428 255 255 255
 0.14715 0.213678  1.59859 255 255 255
-0.0664532   0.523389    1.73936 255 255 255
-1.80186 -1.95208  2.04126 255 255 255
 -2.3664 -1.84296  2.85868 255 255 255
0.178337 0.131669  1.61302 255 255 255
-0.121523  0.496493   1.56883 255 255 255
-1.79417 -1.84698  1.83025 255 255 255
-0.0785121   0.461861    1.95511 255 255 255
-1.85796 -1.80998  2.59887 255 255 255
-1.79667 -1.84747  2.04965 255 255 255
-0.0529684   0.511164    1.83095 255 255 255
-0.306263  0.455159   1.29462 255 255 255
0.157007 0.185344  1.65546 255 255 255
-0.0667577   0.501413    1.67633 255 255 255
 -1.5136 -1.62946  2.97347 255 255 255
 -1.4009 -1.61637  3.09967 255 255 255
-0.251088  0.444943   1.40371 255 255 255
  -1.849 -1.82402  2.65981 255 255 255
-0.0264651   0.543234    1.82048 255 255 255
0.185007 0.154573  1.60279 255 255 255
-0.285583  0.449692   1.31553 255 255 255
-0.272168  0.432134   1.39374 255 255 255
-1.40967 -1.59699  2.94642 255 255 255
 -1.9102 -2.16647  2.68104 255 255 255
0.145362 -0.19396  1.65847 255 255 255
-1.76853 -2.13751  2.73497 255 255 255
-0.00226894    0.332867     1.62703 255 255 255
-2.00899 -2.28865  2.51573 255 255 255
-0.194784  0.475938   1.41002 255 255 255
0.0383139 -0.301559   1.60962 255 255 255
  0.149254 0.00222268    1.72665 255 255 255
-0.320189  0.437941   1.28763 255 255 255
-2.35106 -1.87593  2.82625 255 255 255
-2.37249 -1.96693  2.83229 255 255 255
-0.161982  0.381916   1.88514 255 255 255
  0.139481 0.00568974    1.69351 255 255 255
-1.39384 -1.78988  2.97714 255 255 255
-0.0173321   0.348362    1.63928 255 255 255
-1.93907 -1.70746  1.96451 255 255 255
-1.46894 -1.82934  2.92375 255 255 255
  0.162447 -0.0367848    1.59532 255 255 255
-1.50304 -1.72575   2.9111 255 255 255
-1.42748 -1.58175  3.00855 255 255 255
-0.161756  0.437515   1.48313 255 255 255
  0.0932582 -0.00279914     1.53694 255 255 255
-1.40306 -1.73327  2.97048 255 255 255
-0.141309  0.499131   1.55822 255 255 255
-0.331115  0.393593   1.39171 255 255 255
-0.13413 0.406719  1.93119 255 255 255
-0.0880873   0.461269    1.89236 255 255 255
-0.294326  0.412296   1.40049 255 255 255
-0.0645493    0.49902    1.84696 255 255 255
-0.108956    0.4412   1.91757 255 255 255
-2.50245 -1.78209  2.93428 255 255 255
  0.109036 -0.0113866    1.56608 255 255 255
-1.75512 -1.94144  2.01977 255 255 255
-2.35312 -1.80188  2.78327 255 255 255
-0.0292908   0.548174    1.71044 255 255 255
-1.40087 -1.83586  2.99112 255 255 255
-0.104557  0.499549   1.53661 255 255 255
-0.104799  0.446801   1.85493 255 255 255
-2.35391 -1.90385  2.81474 255 255 255
-0.0967985   0.507553    1.65804 255 255 255
-0.114346  0.506427   1.61468 255 255 255
-1.37972 -1.71114  2.98641 255 255 255
 0.0993755 0.00788812    1.55842 255 255 255
-0.234116   0.46438   1.42821 255 255 255
-1.88286 -1.77165  1.91672 255 255 255
-0.0552672   0.526872     1.7425 255 255 255
-0.0720993   0.485193    1.85576 255 255 255
-2.40785 -1.89166  2.72881 255 255 255
-0.136893  0.519249   1.49184 255 255 255
-1.37855 -1.75588  2.98102 255 255 255
 0.106596 -0.209614   1.57959 255 255 255
-0.055026  0.512817   1.77542 255 255 255
-1.35862 -1.72248  3.08518 255 255 255
-1.35578 -1.67174  3.00641 255 255 255
  -2.371 -1.79358  2.83665 255 255 255
-0.321609  0.386634   1.41505 255 255 255
-0.0856116   0.507198    1.55492 255 255 255
0.183499 0.176874   1.6167 255 255 255
-1.82632 -1.84987   2.1447 255 255 255
-0.107549  0.508339   1.62893 255 255 255
-1.88165 -2.21139  2.61548 255 255 255
-1.38142 -1.80137  3.00891 255 255 255
-1.58523 -1.71392  2.95001 255 255 255
 0.12808 0.214119  1.57378 255 255 255
-0.111368  0.479412   1.57691 255 255 255
-1.75756 -1.78925  1.84326 255 255 255
-0.0981149   0.456076     1.8806 255 255 255
 0.137964 -0.188336   1.61455 255 255 255
0.139165 0.242991  1.55603 255 255 255
-0.092632  0.456181   1.64903 255 255 255
 0.14754 0.223451  1.60861 255 255 255
 -1.8984 -1.78152   1.8892 255 255 255
-0.129485  0.519042   1.48306 255 255 255
-0.026849  0.543674   1.74833 255 255 255
0.130844 0.184587  1.54948 255 255 255
  0.0954724 -0.00724371     1.59425 255 255 255
-0.278974  0.427021   1.38332 255 255 255
-1.91312 -1.71849  2.58147 255 255 255
-0.130606  0.429022   1.91181 255 255 255
-0.336451  0.406604   1.37047 255 255 255
-1.76013 -1.86774  2.00758 255 255 255
-0.0950867   0.471113    1.60682 255 255 255
-1.87427 -2.17721  2.64652 255 255 255
-0.318601  0.389615   1.43533 255 255 255
-2.00029 -1.78986  1.93172 255 255 255
 -1.7895 -1.73472  1.96989 255 255 255
-1.76974 -1.81444  1.88978 255 255 255
0.189119 0.170635   1.6157 255 255 255
-0.121875  0.483914   1.59744 255 255 255
-1.86165 -2.22095  2.63582 255 255 255
0.144182 0.279499  1.59108 255 255 255
-1.89089 -1.85705  2.50586 255 255 255
-0.0969049   0.509364    1.63798 255 255 255
-1.85214 -2.25132  2.61852 255 255 255
0.152353 0.181872  1.56502 255 255 255
-0.0125574   0.338887    1.63679 255 255 255
0.171379 0.175128   1.5724 255 255 255
-0.108916  0.512958   1.46829 255 255 255
-1.86982 -1.83954  1.81589 255 255 255
-1.74275 -1.76259  1.85126 255 255 255
-1.55408 -1.72971  2.93088 255 255 255
-1.77941 -1.82257  1.92574 255 255 255
-0.0734729   0.494088     1.6584 255 255 255
-1.49741 -1.76984  2.87312 255 255 255
 -1.8017 -1.86118  1.92711 255 255 255
 -2.4232 -1.70842   2.8102 255 255 255
-0.118978  0.453038   1.84462 255 255 255
-0.103562  0.337408   1.55683 255 255 255
-2.38894 -1.78487  2.73842 255 255 255
-0.282782  0.403062   1.42793 255 255 255
   0.0931201 -0.000647262      1.54129 255 255 255
-1.57625 -1.68122  2.97648 255 255 255
-0.263055  0.412133   1.44276 255 255 255
-0.118478  0.473809    1.5447 255 255 255
   0.113187 -0.00391963     1.59442 255 255 255
-0.120425  0.287836    1.5312 255 255 255
-2.00363  -1.7374  1.92767 255 255 255
  0.158481 -0.0406534    1.58969 255 255 255
-1.41704 -1.66152  2.93669 255 255 255
  0.164687 -0.0308604    1.60232 255 255 255
-0.109877  0.267921   1.53489 255 255 255
-1.88006 -2.21373  2.64928 255 255 255
-0.0959611   0.486318    1.58459 255 255 255
-1.55167 -1.66698  3.15978 255 255 255
-1.89316 -1.85769  2.52506 255 255 255
-1.89678 -1.73006   2.5959 255 255 255
-0.289116  0.421439    1.4066 255 255 255
0.113267 0.243819  1.54188 255 255 255
-1.78745  -1.7293  1.89033 255 255 255
-0.0897634   0.464902    1.82823 255 255 255
-0.103276  0.484556   1.56211 255 255 255
-1.32521 -1.60484  3.02173 255 255 255
-0.277029  0.440325   1.39954 255 255 255
-2.33352 -1.81102  2.84356 255 255 255
-1.73297 -1.71347  1.94679 255 255 255
0.168361 0.174484   1.5553 255 255 255
-0.280289  0.357691   1.47774 255 255 255
-0.287336  0.446166   1.41871 255 255 255
-1.80873 -1.69275  1.97459 255 255 255
-0.0925974   0.485722     1.6046 255 255 255
  0.111409 -0.0478239    1.51634 255 255 255
-1.82405 -2.24912  2.63387 255 255 255
-1.89166 -1.90146  2.62085 255 255 255
-0.0124181   0.343562    1.63959 255 255 255
-1.90933 -1.71771  2.60696 255 255 255
0.151633 0.277594  1.60274 255 255 255
-0.105864  0.508025   1.47996 255 255 255
-1.87814 -2.19367  2.63043 255 255 255
0.162378 0.151695  1.55643 255 255 255
-1.75408 -1.77607  1.99486 255 255 255
-1.91732 -1.73271  2.56421 255 255 255
-0.218167  0.417521    1.4582 255 255 255
0.148772 0.236918   1.6491 255 255 255
-0.171885  0.452958   1.44078 255 255 255
-1.85316 -2.26733   2.6063 255 255 255
-1.76526 -1.83656  1.86849 255 255 255
0.0730689  0.248162   1.52694 255 255 255
0.181665 0.177715  1.58071 255 255 255
-2.38316 -1.87298  2.79944 255 255 255
 -0.1026 0.495115  1.64387 255 255 255
-1.47425 -1.64309  2.94118 255 255 255
 0.122064 0.0400589   1.72439 255 255 255
-1.68847 -1.94667  1.95783 255 255 255
   0.15204 0.00741859    1.71068 255 255 255
 0.166422 -0.016474   1.71914 255 255 255
 0.163994 0.0931015   1.66975 255 255 255
-1.93483 -2.05446  2.63172 255 255 255
 -1.8878 -1.94297  2.51421 255 255 255
0.0059593  0.320337   1.62371 255 255 255
-1.89864 -1.87388   2.5427 255 255 255
   0.17598 -0.0382723    1.64605 255 255 255
-2.39653 -1.89363  2.75142 255 255 255
-0.134141  0.461244   1.53692 255 255 255
  0.135102 0.00260612    1.66582 255 255 255
-0.259341   0.44588   1.40397 255 255 255
-1.87086 -2.24768   2.5985 255 255 255
-2.40361 -1.80452  2.89258 255 255 255
-1.84325 -2.30744  2.65606 255 255 255
-1.80738 -2.33946  2.58071 255 255 255
 0.16053 0.264513  1.62984 255 255 255
0.101414  0.21163  1.53223 255 255 255
-1.40095 -1.75512  2.95193 255 255 255
-0.0363586   0.355858     1.6157 255 255 255
-2.39984 -1.69445  2.79994 255 255 255
-1.87579 -2.31081   2.5023 255 255 255
-1.79735 -2.33724  2.61414 255 255 255
-1.41653 -1.74315  2.94636 255 255 255
-1.85286 -2.28965  2.61702 255 255 255
-1.91403  -1.9875  2.29444 255 255 255
-1.86382 -1.71144   2.6755 255 255 255
-1.90583  -1.7426  2.51859 255 255 255
 -1.7596 -1.84062  1.99533 255 255 255
-0.0547538   0.399862    1.68474 255 255 255
-1.92348 -1.75725  2.04866 255 255 255
   0.10252 -0.0124527    1.56927 255 255 255
0.140152 0.282963  1.58898 255 255 255
-1.9032 -1.9072 2.59082 255 255 255
-2.39085 -1.91944  2.75172 255 255 255
-1.79154 -1.79104  1.87903 255 255 255
 -1.8056 -1.89442  1.91514 255 255 255
-2.44343 -1.63193  2.84317 255 255 255
-1.78106  -1.8826  2.01389 255 255 255
-1.76959 -2.31611  2.67466 255 255 255
-2.06835 -2.25727  2.59757 255 255 255
-1.87862 -2.21615  2.59143 255 255 255
-1.83511 -2.31358  2.46273 255 255 255
-1.85722  -1.8602  2.17156 255 255 255
-2.27368   -1.796  2.80247 255 255 255
0.181446 0.181823  1.59788 255 255 255
-1.90501 -1.76258  2.68848 255 255 255
-1.80201 -1.74061  1.97284 255 255 255
 -1.8513 -2.30586   2.5148 255 255 255
-1.87206 -2.20628  2.64487 255 255 255
-1.92947 -2.09929  2.44521 255 255 255
-0.0529836   0.395123    1.61546 255 255 255
 0.146394 -0.196108   1.68686 255 255 255
-1.34719 -1.57427  2.94265 255 255 255
  0.160016 -0.0212265    1.65232 255 255 255
  0.159554 -0.0418557    1.58969 255 255 255
 0.128258 -0.062033   1.53518 255 255 255
0.174765  0.19644  1.59507 255 255 255
-0.118867 -0.276616   1.68094 255 255 255
-0.239231  0.303042    1.4978 255 255 255
-0.0692471   0.269605    1.55147 255 255 255
0.0516237  -0.25626    1.5195 255 255 255
0.00649637 -0.0862123    1.48618 255 255 255
 0.0735333 -0.0537727    1.50277 255 255 255
-0.283588  0.449171   1.32234 255 255 255
-0.201284  0.474502   1.28932 255 255 255
0.0514163  0.242752   1.52719 255 255 255
 0.62257 -1.60082  5.39391 255 255 255
  0.0434876 -0.00973788     1.49424 255 255 255
-0.171761 0.0161827   1.51709 255 255 255
 0.213234 0.0981582   1.61023 255 255 255
-1.97479 -1.53415  5.57455 255 255 255
-0.160718 0.0979865   1.49744 255 255 255
-0.202241   0.45886   1.41961 255 255 255
-0.335345  0.373162   1.42126 255 255 255
-0.303086  0.454011   1.29302 255 255 255
0.138993  0.10049  1.56725 255 255 255
0.89617  1.8719  4.6423 255 255 255
-0.357974  0.396062   1.36202 255 255 255
 -0.178333 -0.0306274    1.47095 255 255 255
-0.245946  0.423081   1.42587 255 255 255
0.695703 -1.25196  5.23258 255 255 255
  0.120583 -0.0278481    1.54929 255 255 255
 0.17516 0.170181  1.60873 255 255 255
-0.173082  0.456469   1.46695 255 255 255
-0.355313  0.364942   1.41379 255 255 255
0.0334521  0.301965   1.59528 255 255 255
-1.82429 -1.55468  5.53699 255 255 255
 0.155322 0.0246958   1.59326 255 255 255
 0.156994 0.0217932   1.59393 255 255 255
-0.360093  0.348019    1.4565 255 255 255
-0.0693269   0.562916    1.51246 255 255 255
-0.00497757   -0.212041     1.50933 255 255 255
-0.213613  0.446271   1.43067 255 255 255
0.108896  0.15227  1.52275 255 255 255
 0.0808829 -0.0109244     1.5213 255 255 255
-0.325974  0.389177   1.38569 255 255 255
 0.131738 -0.205529    1.6063 255 255 255
-2.15744 -1.50733  5.64705 255 255 255
-0.0208664   0.525173    1.70604 255 255 255
-0.093768 0.0427891   1.47908 255 255 255
-0.329818  0.387868    1.3916 255 255 255
-0.143459 0.0320223   1.47947 255 255 255
0.354108 -1.33299  5.23922 255 255 255
-0.141272 -0.230057   1.49566 255 255 255
-0.0157764  -0.240043    1.51363 255 255 255
0.824398  1.94913  4.58932 255 255 255
-0.165142  0.467513   1.43923 255 255 255
-0.37531 0.345721  1.45106 255 255 255
  0.190187 -0.0571358    1.69208 255 255 255
-0.143362  0.441457   1.49595 255 255 255
 -0.211078 -0.0526284    1.46239 255 255 255
-0.294412  0.401812    1.3928 255 255 255
-0.0167075   0.514571    1.74409 255 255 255
-0.17253 0.478092  1.41938 255 255 255
-0.033123  0.537192   1.66563 255 255 255
0.648373  1.65961  4.58218 255 255 255
-0.0894379  -0.179059    1.47917 255 255 255
-0.137334  0.499633   1.44193 255 255 255
-0.322141   0.33714   1.49111 255 255 255
0.806405   1.8009  4.59521 255 255 255
-0.0236421     0.5486     1.6402 255 255 255
1.04008 1.56079 5.49964 255 255 255
0.185935 0.136651  1.61604 255 255 255
 1.0085 1.48699 5.46809 255 255 255
-0.0819034    0.56675    1.47527 255 255 255
-0.333692  0.413594   1.36718 255 255 255
-0.129455  0.454086   1.50188 255 255 255
-0.0287597  -0.209969    1.49133 255 255 255
 0.75217 -1.21849  5.10002 255 255 255
-0.243087  0.492632   1.31254 255 255 255
0.877476  1.60805  5.42933 255 255 255
-0.0319818   0.581681    1.59721 255 255 255
-0.0549281  -0.024594    1.47557 255 255 255
-0.318421  0.389646    1.4018 255 255 255
-0.167745 -0.266212   1.53103 255 255 255
-0.0301468   0.575386    1.61121 255 255 255
-0.0327162   0.520018    1.72314 255 255 255
0.0705278 -0.115743   1.50605 255 255 255
 0.42581 -1.86109  5.61979 255 255 255
-1.75317 -1.53584  5.56393 255 255 255
-2.22307 -1.55741  5.62769 255 255 255
-0.18377 0.025943  1.46717 255 255 255
-0.352547  0.325728   1.47538 255 255 255
-0.166612  0.481722   1.39623 255 255 255
-0.351808  0.412571   1.35445 255 255 255
0.669815  1.61782  4.59168 255 255 255
-0.325699  0.443942   1.28324 255 255 255
-0.209442   0.49879   1.31859 255 255 255
-0.0613883   0.563005    1.53591 255 255 255
-0.056718 -0.194844   1.48459 255 255 255
-0.185312  0.455154   1.44479 255 255 255
  -0.14828 0.00653308    1.47906 255 255 255
-0.25533 0.477893   1.3213 255 255 255
-0.372381  0.380227   1.37469 255 255 255
0.00233174  -0.186071    1.48839 255 255 255
-0.00587985    0.534923     1.73185 255 255 255
0.160039 0.111511  1.57274 255 255 255
-0.282793  0.462074   1.31667 255 255 255
-0.110948  -0.22843   1.48947 255 255 255
-0.130687  0.439586   1.51291 255 255 255
-0.0262936   0.507886    1.74728 255 255 255
-0.341384  0.409199   1.31399 255 255 255
-0.319132  0.344267   1.47457 255 255 255
-0.341155  0.411935   1.35876 255 255 255
-0.23276 0.431631  1.39414 255 255 255
-0.329484  0.347273   1.44797 255 255 255
-0.0841632   0.544678    1.49105 255 255 255
  -0.22235 -0.0656657    1.47285 255 255 255
-0.039641  0.569269   1.58931 255 255 255
-0.0415566   0.502937    1.71892 255 255 255
-0.127842  0.184164   1.50123 255 255 255
-0.298553  0.422657   1.37569 255 255 255
0.591659  1.53945  5.70365 255 255 255
-0.200014  -0.24274   1.51381 255 255 255
-0.299399  0.430688   1.32255 255 255 255
-0.173154  0.473092   1.43475 255 255 255
-1.76137  -1.4788  5.55485 255 255 255
-0.156199  0.514207    1.3897 255 255 255
0.87457 1.48264 5.58248 255 255 255
0.885193  1.56639  5.52103 255 255 255
   -0.160296 -0.000887547      1.49106 255 255 255
0.589489 -1.29439  5.29834 255 255 255
-0.177228 -0.247847   1.51749 255 255 255
0.664999  1.63174  4.39806 255 255 255
-0.271101  0.482814   1.29441 255 255 255
-0.0109975   -0.18376    1.48557 255 255 255
 -0.013983 -0.0854526    1.48212 255 255 255
-0.134775  0.533289   1.40617 255 255 255
0.0682211  0.625196   1.72062 255 255 255
0.68572 1.44354 5.73031 255 255 255
-0.334808  0.445694   1.28572 255 255 255
-0.171316  0.465638   1.40772 255 255 255
0.839005  1.76066  4.54964 255 255 255
 0.116685 0.0197933   1.58963 255 255 255
1.00587 1.32262 5.54254 255 255 255
-0.015004 -0.146611   1.47936 255 255 255
-0.205133  0.496238   1.34263 255 255 255
0.0468983   0.60884   1.77759 255 255 255
-0.19887 0.453758  1.41744 255 255 255
0.711556   1.8946  4.56927 255 255 255
0.913431  1.39706  5.50243 255 255 255
-0.277574  0.399826   1.41072 255 255 255
0.690243  1.79664  4.58736 255 255 255
0.688424  1.92203  4.59738 255 255 255
0.991408  1.54467  5.53515 255 255 255
-0.0456827     0.5779    1.50119 255 255 255
-0.0146276     0.5574    1.68337 255 255 255
  0.103039 -0.0109535    1.53872 255 255 255
0.800103  1.27806  5.70099 255 255 255
0.0511711  0.286633   1.56636 255 255 255
-0.157523  0.468389   1.47644 255 255 255
-0.262153  0.474998   1.31884 255 255 255
 -1.8275 -1.38933  5.44826 255 255 255
0.0179497  0.561551   1.76876 255 255 255
-1.80744 -1.45861  5.55529 255 255 255
-0.191207  0.496363   1.33927 255 255 255
-0.324586  0.335461   1.47153 255 255 255
-0.229145  0.437485   1.43727 255 255 255
-0.245376   0.44285   1.39227 255 255 255
-0.0781329   -0.10034    1.47625 255 255 255
0.649332  1.89968   4.5453 255 255 255
0.0485354 -0.220374   1.52416 255 255 255
0.00511169   0.516953    1.77173 255 255 255
-0.30188 0.406398   1.3885 255 255 255
-0.0711549 -0.0478116    1.48055 255 255 255
-0.297648   0.38837   1.40943 255 255 255
0.739809   1.7617  4.49142 255 255 255
-2.14838 -1.52532  5.57485 255 255 255
-0.159898 -0.196239   1.48719 255 255 255
-0.169828 -0.231026   1.49915 255 255 255
-0.286328  0.470192   1.31591 255 255 255
 -1.8661 -1.49544  5.52292 255 255 255
-0.0713293   0.210998    1.50127 255 255 255
-0.0367331   0.609901    1.52853 255 255 255
-0.0640885  -0.188299    1.47453 255 255 255
-0.357572  0.363798   1.42328 255 255 255
-2.10448 -1.56153  5.65525 255 255 255
 -0.10763 -0.196102   1.47902 255 255 255
-0.383851  0.368191   1.41362 255 255 255
-0.243966 -0.167341    1.5184 255 255 255
0.0343063  0.612333   1.78464 255 255 255
-0.203278  0.502794   1.32414 255 255 255
  0.142042 -0.0228571    1.58578 255 255 255
-2.03716 -1.46153  5.56833 255 255 255
-0.296535  0.430024   1.37199 255 255 255
 -0.131898 -0.0767001     1.4891 255 255 255
0.758656   1.8429  4.49905 255 255 255
 -0.143228 -0.0853087    1.48807 255 255 255
-0.325757  0.338435   1.46012 255 255 255
-0.195642  0.385182   1.48307 255 255 255
0.0338684 -0.129139    1.4916 255 255 255
-0.0309834  -0.143982    1.47523 255 255 255
-2.08734  -1.4809  5.60834 255 255 255
-0.203281  0.450782   1.43072 255 255 255
0.436134  1.66601  4.95934 255 255 255
0.853539  1.66254  4.54054 255 255 255
-0.280186  0.469792   1.31365 255 255 255
-0.254497  0.414338   1.41714 255 255 255
-0.147414  0.466874   1.49056 255 255 255
  0.094623 -0.0551083    1.49999 255 255 255
-0.10844 0.119842  1.48617 255 255 255
-0.241092  0.391097   1.46523 255 255 255
0.150346 0.142054  1.57536 255 255 255
-0.289686  0.432641   1.35813 255 255 255
0.874061   1.5102  5.56006 255 255 255
-0.0751378  -0.219877    1.48898 255 255 255
-0.0861367   0.468995    1.61473 255 255 255
 1.0728 1.12863 5.58057 255 255 255
-0.326373  0.416287   1.32032 255 255 255
-0.238413  0.487789   1.30765 255 255 255
-0.329423  0.413436   1.31493 255 255 255
-0.187816  0.389656    1.4904 255 255 255
-0.197088 -0.252363   1.51567 255 255 255
-2.12682 -1.46726  5.63085 255 255 255
-0.0263528 -0.0408066    1.47648 255 255 255
-0.050268 -0.142438   1.47183 255 255 255
-0.225266  0.452536   1.33357 255 255 255
-0.211788  0.503637   1.31955 255 255 255
0.146625 -1.43974  5.41879 255 255 255
-0.388671  0.370753    1.4048 255 255 255
-0.0250342   0.513992    1.68956 255 255 255
-2.08262  -1.2424  5.56968 255 255 255
-0.302037  0.430666   1.37165 255 255 255
-0.259914  0.432649   1.40197 255 255 255
 -0.2067 0.505136  1.32139 255 255 255
0.513871  1.50461  5.72112 255 255 255
-0.334046  0.377642   1.41106 255 255 255
 -2.0101 -1.33171  5.53565 255 255 255
0.794676   1.5897  5.35715 255 255 255
-0.145881  0.479479   1.46922 255 255 255
-0.275701  0.464725   1.31879 255 255 255
-0.0461222    0.22002    1.50277 255 255 255
-0.138888 -0.185165   1.47899 255 255 255
0.156985 0.128564  1.57938 255 255 255
0.0216343 -0.235159   1.51796 255 255 255
0.950158 -1.36754   5.1952 255 255 255
-0.391462  0.365166   1.42472 255 255 255
0.155506 0.188413  1.59465 255 255 255
-0.256259  0.482345   1.29748 255 255 255
-0.31353 0.441509  1.28172 255 255 255
-0.033202  0.524262   1.67595 255 255 255
-0.186985 -0.182044   1.49119 255 255 255
-0.00179334    0.186724     1.49299 255 255 255
0.159073 0.184667  1.60482 255 255 255
0.585886  1.37307  5.70242 255 255 255
-0.222507 -0.124234    1.5033 255 255 255
0.990106  1.22264  5.80293 255 255 255
-0.0802771    0.56641    1.46216 255 255 255
0.736859  1.75446     4.53 255 255 255
-0.274693  0.405553   1.40233 255 255 255
-0.256539   0.43438   1.38686 255 255 255
-0.256566  0.483924   1.28976 255 255 255
-0.373742  0.369371   1.40448 255 255 255
-0.242182 -0.104281   1.50947 255 255 255
0.00142929   0.579835    1.68319 255 255 255
-0.230768 -0.109195   1.50514 255 255 255
0.806405  1.91151  4.33532 255 255 255
-0.344215  0.413165   1.33457 255 255 255
-0.114415  0.494418   1.48589 255 255 255
-1.89253 -1.57157  5.58397 255 255 255
-0.079917 0.0711055   1.47845 255 255 255
1.02765 1.27014 5.60391 255 255 255
-0.328145   0.34419   1.45878 255 255 255
0.69906 1.74423 4.50792 255 255 255
-0.200078  0.492867   1.32004 255 255 255
-0.116676  0.266447   1.52592 255 255 255
0.955641  1.53154  5.50409 255 255 255
-0.00786258    0.536096     1.68385 255 255 255
-2.23934 -1.49979  5.73044 255 255 255
0.642856  1.42333  5.68444 255 255 255
0.936698 -1.43378  5.11253 255 255 255
 0.021797 -0.166009   1.49123 255 255 255
0.0475898 -0.204175   1.51803 255 255 255
-0.120163  0.501676   1.48957 255 255 255
0.0141414  0.635222   1.62766 255 255 255
 -0.199602 -0.0889556    1.49325 255 255 255
-0.307683  0.405627   1.38715 255 255 255
0.149336 0.124218  1.57736 255 255 255
-0.200192  0.400027   1.47764 255 255 255
-0.161441  0.466601   1.46766 255 255 255
 1.01155 -1.28275  5.20096 255 255 255
-0.0872348 -0.0165693    1.48017 255 255 255
-0.0118424   0.575276     1.6685 255 255 255
   -0.163 -0.200724    1.4943 255 255 255
-0.320127  0.439686   1.29954 255 255 255
-0.372631  0.401255   1.36236 255 255 255
-0.238612  0.424836   1.42971 255 255 255
0.0130184  0.278634   1.54016 255 255 255
-1.72704 -1.72063  6.01015 255 255 255
-0.0840502   0.323691    1.54873 255 255 255
0.242649 -1.49722    5.437 255 255 255
-0.133869  0.528491   1.37807 255 255 255
-0.0427325   0.190571     1.4911 255 255 255
-0.119533  0.527578   1.43723 255 255 255
-1.95708 -1.24727  5.58516 255 255 255
-0.325864   0.37522   1.42968 255 255 255
-0.0050828    1.47499    5.72943 255 255 255
-0.265912 -0.105495   1.52445 255 255 255
-0.185889  0.394902   1.48854 255 255 255
-0.0285997   0.134767    1.48491 255 255 255
-0.275061  0.475911   1.29383 255 255 255
-0.287716  0.431257   1.37369 255 255 255
-0.0300336    0.59521    1.53077 255 255 255
-0.0916682   0.165996    1.49083 255 255 255
0.890856  1.80662  4.48276 255 255 255
-0.250434  0.419214   1.40854 255 255 255
-0.0234283   0.555815    1.66555 255 255 255
-0.141876  0.474883   1.47424 255 255 255
-0.0987047   0.227084    1.51405 255 255 255
 -0.112947 -0.0769859    1.48051 255 255 255
 -0.284288 -0.0512943    1.54618 255 255 255
-0.0617434  0.0854761    1.47326 255 255 255
-0.277935  0.473253   1.29153 255 255 255
-0.398116   0.33432    1.4868 255 255 255
0.231731 -1.50764  5.39949 255 255 255
0.213264 -1.41213  5.44547 255 255 255
-0.0815429 -0.0378484     1.4785 255 255 255
-0.0955558  -0.124762    1.47364 255 255 255
-0.161288  0.412876   1.49421 255 255 255
0.765908  1.87656  4.47999 255 255 255
-0.0200489   0.170158    1.48375 255 255 255
 0.169297 0.0164316   1.60479 255 255 255
-0.0702608  -0.205956    1.47992 255 255 255
-0.124259 -0.187463   1.47696 255 255 255
-0.0734481   0.578974    1.46454 255 255 255
0.0820118  0.252344   1.53409 255 255 255
-0.0369232   0.192358    1.49197 255 255 255
0.879914  -1.3468  5.17956 255 255 255
-0.332522  0.330874   1.47123 255 255 255
-0.294997  0.408819   1.38684 255 255 255
-0.0936757   0.532765    1.46756 255 255 255
-0.0641162   0.244784     1.5162 255 255 255
-0.0545476   0.588971    1.50073 255 255 255
-0.116257  0.506964   1.48575 255 255 255
-0.219982  0.490951   1.32007 255 255 255
-0.343004   0.37704   1.39507 255 255 255
 -0.186362 -0.0905826    1.48705 255 255 255
-0.229249  0.436676   1.40625 255 255 255
-0.0572015   0.126115    1.47781 255 255 255
-0.0443051   0.528028    1.66468 255 255 255
0.819216  1.87362  4.46369 255 255 255
-0.343283  0.404133   1.36848 255 255 255
-0.0511186   0.521757    1.65676 255 255 255
-0.024757  -0.14539   1.47471 255 255 255
-0.295052  0.422349   1.38226 255 255 255
-1.64337 -1.56602  5.52208 255 255 255
-0.247831  0.431216   1.38288 255 255 255
-0.138978  0.530661   1.39944 255 255 255
-0.197358  0.460392   1.38952 255 255 255
0.208647 -1.56624  5.46457 255 255 255
-0.259555  0.410256   1.41753 255 255 255
-0.0971404   -0.16458    1.47239 255 255 255
-0.30292 0.348806  1.46753 255 255 255
-0.218271  0.444172   1.40252 255 255 255
-0.164227 -0.205659   1.49207 255 255 255
-0.335103  0.326888   1.47594 255 255 255
-0.198785  0.395896   1.47992 255 255 255
0.0414787  0.150623   1.49765 255 255 255
-0.0498259   0.480685    1.82645 255 255 255
 0.0435394 -0.0106295    1.49259 255 255 255
0.246734 -1.36662  5.44457 255 255 255
0.0920805  0.144098   1.50742 255 255 255
-0.152441  0.484669     1.438 255 255 255
 0.126471 -0.220261   1.76156 255 255 255
 0.120502 -0.189365    1.7431 255 255 255
-4.89861 -1.71593  6.95781 255 255 255
-0.0198072   0.512299    1.77574 255 255 255
0.295163 -1.43277  5.49501 255 255 255
-0.28619 0.373807  1.45527 255 255 255
-0.314624  0.386685   1.41409 255 255 255
-0.168223  0.446457   1.47667 255 255 255
-0.168488  0.446225   1.47796 255 255 255
-0.250992  0.486714   1.30737 255 255 255
-0.16042  0.47736  1.41997 255 255 255
0.0746429  0.622199   1.90844 255 255 255
-0.210779 -0.193117   5.03675 255 255 255
-0.163993  0.439424   1.48904 255 255 255
 -0.100017 -0.0660348    1.49307 255 255 255
-0.00666905    0.522125      1.7823 255 255 255
-0.316151  0.387648   1.39613 255 255 255
-1.51569 -1.68586  2.92819 255 255 255
-0.0627487   0.523845    1.53866 255 255 255
-4.63266 -1.73176  6.82911 255 255 255
-0.200233 -0.345793   1.63297 255 255 255
-0.159306   1.55306    5.7887 255 255 255
0.0256685  0.548033   1.88331 255 255 255
0.0881093   1.00998   5.72361 255 255 255
0.0356056  0.612624   1.78016 255 255 255
-0.09622 0.484866  1.57073 255 255 255
-0.872081  0.694775   6.06561 255 255 255
-0.985989  0.692156   6.07782 255 255 255
0.0741275   1.25761   5.82266 255 255 255
-0.262564   1.18699   5.72467 255 255 255
0.204481 -1.47123  5.44154 255 255 255
-5.22536 -1.54948  7.03106 255 255 255
-0.407569   1.53063   5.85018 255 255 255
-0.677605   1.47119   5.75676 255 255 255
-0.169989   1.48692   5.67614 255 255 255
-0.235429 -0.336566   1.62241 255 255 255
-0.102117  0.524853   1.50091 255 255 255
0.0250274   1.64549   5.69112 255 255 255
-0.145362   1.52565   5.86283 255 255 255
-0.580204   1.92103   5.61624 255 255 255
-0.0155375   0.540837    1.69355 255 255 255
-0.110705  0.949635   5.83352 255 255 255
-0.437665   1.51841   5.69865 255 255 255
-0.0455023   0.538204     1.6507 255 255 255
-0.141787   1.40216   5.90139 255 255 255
-0.213868   1.49971   5.85831 255 255 255
0.009887 0.594011  1.68495 255 255 255
-5.03543 -1.64768  6.95715 255 255 255
-0.0150058   0.575984    1.65733 255 255 255
-0.169374 0.0318564   1.48376 255 255 255
-0.108025  0.515369   1.49908 255 255 255
-4.91808 -1.56427  6.87227 255 255 255
-1.39194 -1.59118  2.98259 255 255 255
-0.649603   1.77795   5.66339 255 255 255
-0.532597    1.6836   5.65846 255 255 255
-0.12564 0.493289  1.49109 255 255 255
-0.222347   1.44623   5.69624 255 255 255
-0.760974   1.47224   5.81838 255 255 255
0.166638 0.115408   1.5859 255 255 255
-0.668148   1.22943    5.8706 255 255 255
0.101895 0.894159  5.74104 255 255 255
-0.0476341   0.100981    1.47545 255 255 255
-0.651663   1.79746   5.62031 255 255 255
-0.323484  0.375219   1.44187 255 255 255
-0.902232  0.914484   6.00548 255 255 255
  0.129286 -0.0422167    1.52224 255 255 255
-0.0613619    1.53531    5.75779 255 255 255
-1.04447  0.75327  6.06693 255 255 255
-0.629893   0.96576   5.91084 255 255 255
-0.215832  0.452073   1.37967 255 255 255
-0.061682  0.492809    1.6245 255 255 255
-0.0704023  -0.169048    1.47707 255 255 255
-0.109839   0.51574   1.49011 255 255 255
-0.0586918   0.107032    1.47674 255 255 255
-0.0874833   0.267711    1.53067 255 255 255
-0.0939852   0.505376    1.49035 255 255 255
-0.483042  0.762488   5.93339 255 255 255
0.0960579   0.16177   1.51252 255 255 255
-0.10847 0.119789  1.48618 255 255 255
-0.414803   1.27925   5.76231 255 255 255
0.0255257  -0.19408   1.50154 255 255 255
0.0296087  0.609579   1.78519 255 255 255
-0.115179  0.481148   1.48016 255 255 255
-0.0807867  -0.109796    1.47645 255 255 255
-0.0767498   0.330813     1.5593 255 255 255
-0.256902   1.00852   5.80031 255 255 255
-0.0709781 -0.0493793    1.48113 255 255 255
-0.916579  0.688178   6.05874 255 255 255
-0.118734  0.498074   1.47345 255 255 255
-0.10272 0.484079  1.55307 255 255 255
-0.184939   1.28779   5.70869 255 255 255
-0.00179874    0.140262     1.48239 255 255 255
-5.10525 -1.81269  7.01482 255 255 255
-0.0685723   0.451462    1.88117 255 255 255
-0.147213  0.516007   1.40409 255 255 255
-0.139802  0.468095   1.47775 255 255 255
-0.448659   1.11395   5.81918 255 255 255
 0.043618 -0.312519   1.62001 255 255 255
-0.192595  0.292974   1.49741 255 255 255
-0.584542  0.694914   5.95134 255 255 255
-0.114759  0.513066   1.48616 255 255 255
0.0833888   1.66223   4.78669 255 255 255
-0.0108219   0.210437    1.50158 255 255 255
-0.0272145   0.553758    1.64345 255 255 255
-0.0747083   0.501462    1.56819 255 255 255
-0.326981  0.366497   1.43875 255 255 255
-0.106405  0.504975   1.46422 255 255 255
-0.0794384  0.0720686      1.477 255 255 255
-0.181232  0.404999   1.48663 255 255 255
-0.107259  0.264164   1.52205 255 255 255
-1.53197 -1.61601  3.18712 255 255 255
-0.160412   0.46579   1.46557 255 255 255
-0.229156  0.405121   1.47117 255 255 255
0.204623 -1.51549  5.43654 255 255 255
-0.0585134   0.131576    1.48201 255 255 255
0.198731 -1.61291  5.48443 255 255 255
 0.32241 -1.31139   5.3973 255 255 255
-4.27563 0.513013  6.23783 255 255 255
-0.328479   0.38154   1.41525 255 255 255
0.0370199   1.71949   4.96558 255 255 255
-0.00593103   -0.097232     1.47904 255 255 255
-0.773323   1.17116   5.89971 255 255 255
0.108853 0.988234  5.72775 255 255 255
0.309133 0.235549  1.21369 255 255 255
-0.131587  0.442566   1.53096 255 255 255
-0.255515  0.434576   1.40526 255 255 255
-0.256279   0.38094   1.46677 255 255 255
-0.639629   2.09259   5.48737 255 255 255
0.0179417   0.17729   1.49314 255 255 255
 -0.56664 -0.070268   1.61438 255 255 255
-0.00998439    0.131253     1.47876 255 255 255
-0.0364987 -0.0499911    1.47662 255 255 255
-0.206111  0.446875   1.43803 255 255 255
-0.0513102   0.524333    1.68706 255 255 255
 -0.0618347 -0.00317746     1.47126 255 255 255
0.101594  1.33856  5.81748 255 255 255
-4.60727 -1.61427  6.82222 255 255 255
-0.0778647  0.0209943    1.47581 255 255 255
0.141472 0.248666  1.55923 255 255 255
-0.00181597     1.66706     5.69693 255 255 255
0.232594 0.329666  1.51469 255 255 255
0.0376487  0.582984   2.02947 255 255 255
-0.0283267  -0.034078     1.4717 255 255 255
0.141569 -1.60114   5.5646 255 255 255
-0.180797  0.414478   1.48529 255 255 255
-0.523624   1.92426   5.57558 255 255 255
-0.471951   1.84774   5.63431 255 255 255
-0.261047  0.477995   1.31287 255 255 255
-0.037345  0.152358   1.48111 255 255 255
-0.249436    0.4116   1.45115 255 255 255
-0.117658  0.257923   1.51965 255 255 255
-0.345167  0.387098   1.38214 255 255 255
-0.596051  0.885648   5.89812 255 255 255
-0.00179207   -0.216581     1.50207 255 255 255
0.0329252 0.0105184   1.87436 255 255 255
-0.0664229    0.47588    1.83844 255 255 255
 0.122483 0.0180334   1.79913 255 255 255
-0.0173437  0.0103316    1.90719 255 255 255
0.0600997 0.0424896   1.85186 255 255 255
-0.170443  0.448866   2.01454 255 255 255
-0.173236  0.342566   1.86047 255 255 255
0.169372  0.10533  1.65508 255 255 255
-0.0605551  0.0212888    1.93343 255 255 255
-0.0666505  -0.185014    1.94619 255 255 255
-0.0147633   0.064452    1.89746 255 255 255
-0.138153  0.479371   1.97814 255 255 255
-0.0340241 -0.0269643    1.90765 255 255 255
 0.0609183 -0.0155783    1.86281 255 255 255
  0.156983 -0.0332352     1.7766 255 255 255
-0.103683  0.450508   1.79461 255 255 255
 0.111844 -0.164213   1.84004 255 255 255
-0.144196  0.442261   1.90987 255 255 255
 0.0448671 -0.0460722    1.87561 255 255 255
0.163084 0.085534  1.67156 255 255 255
-0.161605  0.426465   1.95511 255 255 255
-0.069594  0.116855   1.92662 255 255 255
0.0393085 -0.130538   1.90272 255 255 255
0.0504431 0.0275454   1.86566 255 255 255
-0.0372748  0.0131663    1.92315 255 255 255
-0.0246315    -0.1836    1.93318 255 255 255
-0.171711  0.430712   1.98775 255 255 255
-0.0533852  0.0327966       1.91 255 255 255
-0.0114234  -0.147541    1.93394 255 255 255
 0.0815691 -0.0331288    1.85359 255 255 255
-0.225581  0.420808   1.99841 255 255 255
-0.174053  0.390327   1.92019 255 255 255
-0.121282  0.472345   1.90491 255 255 255
  0.10928 -0.133056   1.83079 255 255 255
-0.189472  0.400457   1.94866 255 255 255
-0.159787  0.415548   1.93411 255 255 255
-0.149639   0.43162   1.91642 255 255 255
-0.0534004  0.0934782    1.91882 255 255 255
-0.0140186   0.092381    1.87966 255 255 255
-0.0354499     -0.199    1.94174 255 255 255
-0.0454789   0.501087    1.81063 255 255 255
-0.0339011  0.0567533    1.90745 255 255 255
-0.038316  0.522069   1.71005 255 255 255
-0.188959  0.420371   1.97992 255 255 255
0.0888572 -0.129188   1.86681 255 255 255
 0.0612706 -0.0425355    1.85822 255 255 255
0.00970473 -0.0409993     1.9029 255 255 255
-0.128488  0.445799   1.89977 255 255 255
-0.0669112   0.081899    1.93085 255 255 255
-0.0580769   0.058818    1.90985 255 255 255
-0.108356  0.470692    1.8885 255 255 255
0.064159 0.140284  1.81916 255 255 255
-0.212411  0.439489    2.0164 255 255 255
0.0257788  0.116163   1.86236 255 255 255
-0.171083   0.41161   1.95133 255 255 255
-0.0433106   0.123625    1.88399 255 255 255
 0.0480937 -0.0754097    1.88832 255 255 255
-0.038238  0.317833   1.74173 255 255 255
-0.0431966   0.513961    1.70985 255 255 255
-0.0939735   0.498082    1.90967 255 255 255
0.0151555 -0.124209   1.91867 255 255 255
-0.0724307  -0.179794    1.95032 255 255 255
 0.119755 -0.111424   1.84129 255 255 255
-0.00721606    0.131541     1.86374 255 255 255
-0.15663 0.424193  1.92754 255 255 255
 0.0415905 -0.0592315      1.891 255 255 255
 0.114294 -0.148552   1.83116 255 255 255
0.0757042  0.191066   1.80851 255 255 255
-0.177221  0.401408    1.9359 255 255 255
-0.156045  0.419048   1.94653 255 255 255
 0.0178584 -0.0399147    1.88821 255 255 255
-0.122026  0.477492   1.97273 255 255 255
-0.0195128    0.19787    1.83583 255 255 255
0.0231288  0.138899   1.85532 255 255 255
0.00406139   0.185469    1.84475 255 255 255
0.0351613 0.0910326   1.85838 255 255 255
0.0122979  0.171275    1.8464 255 255 255
 0.11334 0.170804  1.76352 255 255 255
0.0171534  0.251453   1.78886 255 255 255
-0.112815  0.439829   1.86455 255 255 255
0.0238217 -0.051805   1.89421 255 255 255
-0.0457099  0.0270921    1.91812 255 255 255
-0.0596957   0.472351    1.88074 255 255 255
0.0422859 -0.215847   1.88464 255 255 255
-0.027438 0.0157187   1.91912 255 255 255
0.0125061  0.170739   1.85726 255 255 255
-0.017493  0.214914   1.83884 255 255 255
0.0827487  0.153899   1.80235 255 255 255
-0.126234  0.460471   1.89678 255 255 255
-0.0407991   0.503802    1.82865 255 255 255
-0.106007  0.465183   1.56443 255 255 255
0.0750749  0.153288   1.80905 255 255 255
-0.0927609   0.478998    1.81998 255 255 255
0.0424664 0.0866837   1.85905 255 255 255
 0.042559 -0.168028   1.89743 255 255 255
-0.11185 0.477672  1.89674 255 255 255
0.0301444 -0.130964   1.90445 255 255 255
0.0388584 0.0317676    1.8726 255 255 255
0.0313669  0.202156   1.82071 255 255 255
-0.00552288  0.00403972     1.90173 255 255 255
-0.209848   0.39721   1.94545 255 255 255
0.0281974 -0.155986   1.91966 255 255 255
0.0175404 0.0261508   1.85934 255 255 255
 0.055115 0.0961744   1.85773 255 255 255
-0.0621714  -0.177384    1.87469 255 255 255
0.0580089 -0.220952    1.8668 255 255 255
 0.107571 -0.142181   1.74916 255 255 255
0.0656653  0.201597   1.77831 255 255 255
0.0163139 -0.142272   1.92667 255 255 255
0.103991 0.247302  1.57157 255 255 255
-0.141173   0.43358   1.87721 255 255 255
-0.0479191   0.111933    1.89646 255 255 255
-0.153309  0.448709   1.99005 255 255 255
  0.184719 -0.0361987    1.69327 255 255 255
  0.159668 -0.0203965    1.63265 255 255 255
 0.197378 0.0317539   1.62919 255 255 255
-0.056041 0.0234845   1.93471 255 255 255
-0.0469772   0.500873    2.01195 255 255 255
  0.156627 -0.0326906    1.77561 255 255 255
-0.107929  0.430614   1.85253 255 255 255
-0.0585848   0.509347    1.68445 255 255 255
0.160002 0.206229  1.63962 255 255 255
-0.0942024   0.487512    1.57028 255 255 255
  0.15858 0.0077791   1.64846 255 255 255
-0.145117    0.4419   1.90955 255 255 255
-0.0939881   0.527382    2.01071 255 255 255
-0.00316339    0.306343     1.72848 255 255 255
-0.0124306  -0.161111    1.91075 255 255 255
-0.0546284   0.516934    1.89249 255 255 255
-0.0815721  0.0465303    1.93763 255 255 255
-0.145101  0.516166   2.12358 255 255 255
-0.190521  0.474584   2.03175 255 255 255
-0.119137  0.512307   2.03749 255 255 255
-0.0745097  0.0966606    1.93697 255 255 255
-0.145789  0.468636     1.992 255 255 255
-0.0374794  -0.101605    1.93661 255 255 255
0.0935353 -0.136034   1.85362 255 255 255
-0.0724337   0.538638    1.89757 255 255 255
-0.189053  0.363475   1.91709 255 255 255
-0.119331   0.45638   1.89366 255 255 255
-0.165384  0.463409   2.01817 255 255 255
  -0.06961 -0.0479389    1.93758 255 255 255
0.0291601 0.0936892   1.87055 255 255 255
-0.111727  0.491066   1.97168 255 255 255
0.00171323  -0.107557    1.92491 255 255 255
-0.112965   0.51388   2.01537 255 255 255
-0.101678   0.53935    1.9974 255 255 255
   0.0118 -0.143022   1.91718 255 255 255
-0.0293078 -0.0806658    1.93251 255 255 255
-0.110033  0.498116   1.97406 255 255 255
-0.192172  0.443821   2.01052 255 255 255
0.0215847 -0.131512   1.91547 255 255 255
 0.116822 -0.146874   1.83316 255 255 255
-0.192603  0.439038   2.01527 255 255 255
-0.13916 0.451694  1.91325 255 255 255
-0.143991  0.467598   1.97579 255 255 255
-0.248563  0.515337   2.11029 255 255 255
-0.0798087   0.454984    1.56908 255 255 255
0.0451101  -0.10474   1.89833 255 255 255
-0.199872  0.550975   2.14666 255 255 255
 0.166888 0.0320965   1.73743 255 255 255
-0.0372886  -0.195872    1.94381 255 255 255
-0.0171355   0.316426    1.71578 255 255 255
-0.143025  0.515183   2.03965 255 255 255
-0.12957 0.348158  1.84992 255 255 255
 0.118035 -0.186183    1.8045 255 255 255
-0.0629547   0.500965    1.70488 255 255 255
-0.141022  0.546991   2.06599 255 255 255
-0.142946  0.453264   1.92073 255 255 255
-0.042493  0.513635   1.74268 255 255 255
-0.132586  0.540031   2.13526 255 255 255
-0.160878  0.446379   1.96909 255 255 255
-0.23707  0.55478  2.15788 255 255 255
-0.154035  0.459412    1.9932 255 255 255
 0.127478 -0.199096   1.59111 255 255 255
-0.0472645   0.504024    1.79396 255 255 255
0.0516038  0.173179   1.81574 255 255 255
-0.199641  0.456712   2.03444 255 255 255
0.0827481 -0.182644    1.8261 255 255 255
-0.0327531  -0.162504    1.94221 255 255 255
   0.17574 -0.0346918    1.75229 255 255 255
0.173552 0.166035  1.65262 255 255 255
-0.091899  0.536427   2.01577 255 255 255
0.0398833  0.242093   1.78335 255 255 255
0.138626  0.14613   1.7474 255 255 255
-0.0495234   0.511393    1.75119 255 255 255
0.0364576  0.187985    1.8201 255 255 255
0.0290259 0.0864912   1.86258 255 255 255
-0.0179734 -0.0779305    1.93158 255 255 255
  0.170247 -0.0250279    1.76094 255 255 255
-0.202797  0.456459   2.04533 255 255 255
0.125717 0.254075  1.70345 255 255 255
0.00417928 -0.0549245    1.91422 255 255 255
-0.207686  0.452049   2.01567 255 255 255
-0.145481  0.442712   1.91793 255 255 255
0.0808177  0.196071   1.78354 255 255 255
0.0741713 0.0118595   1.85424 255 255 255
0.0524758  0.216556     1.791 255 255 255
-0.153835  0.451584    1.9602 255 255 255
 0.17042 0.130877   1.6298 255 255 255
-0.15256 0.441378  1.92167 255 255 255
-0.0010715 -0.0438084    1.90663 255 255 255
-0.077762 0.0364683   1.90974 255 255 255
0.0293047   0.12025   1.85489 255 255 255
-0.101607   0.48246   1.88865 255 255 255
 0.117188 -0.158389    1.8228 255 255 255
-0.118505  0.510165   2.02906 255 255 255
-0.108515  0.482299   1.89588 255 255 255
 0.0566285 -0.0305602    1.87361 255 255 255
0.0137437  0.119489   1.86172 255 255 255
-0.0868471   0.525569     1.9094 255 255 255
-0.181409  0.484073   2.03865 255 255 255
-0.180135  0.469959   2.04086 255 255 255
-0.0150378  -0.182545    1.94097 255 255 255
 0.125075 -0.128804   1.63647 255 255 255
-0.196414   0.43966   1.94547 255 255 255
-0.069816 -0.327582   1.65241 255 255 255
 -1.7501 -1.64919  2.52664 255 255 255
0.0665764  0.301186   1.68245 255 255 255
-0.0416912   0.531699    1.59266 255 255 255
-0.244236  0.447373   1.37105 255 255 255
-1.79703 -2.25783  2.73907 255 255 255
  0.0876047 0.000540585     1.81195 255 255 255
-0.0498404   0.533638    1.68256 255 255 255
-0.052566  0.477278   1.67237 255 255 255
0.169471 0.155188  1.58108 255 255 255
0.165214 0.209005  1.64391 255 255 255
-0.0672273   0.520938    1.64928 255 255 255
 0.184879 0.0301146    1.6097 255 255 255
  0.165497 -0.0179289    1.71907 255 255 255
-0.0923571    0.44234    1.78311 255 255 255
-1.39589 -1.66533  3.15954 255 255 255
-0.293385  0.422166   1.42408 255 255 255
-0.0737678    0.48546     2.0297 255 255 255
   0.100596 -0.00758869     1.55218 255 255 255
-0.0724481   0.486323    1.80159 255 255 255
-0.214136  0.507981   1.34048 255 255 255
-0.0881331   0.480973     1.7313 255 255 255
0.190012  0.16444  1.62252 255 255 255
-1.43394 -1.68974  3.02616 255 255 255
 0.15756 0.172512  1.69808 255 255 255
-0.0565914   0.499341    1.77677 255 255 255
 0.143071 0.0199125   1.66563 255 255 255
-2.27926 -1.69389  2.83047 255 255 255
0.144188 0.229689  1.60175 255 255 255
-0.0730943   0.487102    1.85025 255 255 255
0.0982585 -0.285966   1.70479 255 255 255
-0.299917   0.41732    1.3881 255 255 255
-1.77271 -2.30905   2.6343 255 255 255
-1.85779 -1.80953  2.59878 255 255 255
-0.0497896   0.436634    1.85634 255 255 255
-0.071351  0.515055   1.70513 255 255 255
-0.150409  0.472656   1.45183 255 255 255
0.0982243  0.152469   1.52179 255 255 255
0.144194 0.277076  1.57535 255 255 255
-0.0452756   0.499338    1.97336 255 255 255
-0.269905  0.438926   1.33439 255 255 255
    0.13341 -0.00286555     1.68238 255 255 255
-0.164142  0.487212   1.43043 255 255 255
-0.0603843   0.547345    1.64523 255 255 255
0.0155034  0.583613   1.91343 255 255 255
  0.163758 -0.0524976    1.58775 255 255 255
-2.12492 -1.79877  2.73936 255 255 255
-2.42602 -1.74804  2.81218 255 255 255
-0.0682472   0.495266    1.86363 255 255 255
-0.088511  0.046638   1.93156 255 255 255
  0.1082 0.286295  1.67926 255 255 255
-0.0338997 0.00110873    1.90216 255 255 255
0.191823 0.107031  1.57018 255 255 255
-0.096209  0.461052   1.81745 255 255 255
-0.22454 0.347373  1.88939 255 255 255
-1.83304 -2.19737  2.66289 255 255 255
-0.382753  0.402613   1.27221 255 255 255
0.0450702 -0.306252   1.65136 255 255 255
  0.20246 0.0860861   1.64258 255 255 255
0.0366217  0.575581   1.85465 255 255 255
-0.128748  0.427684   1.87792 255 255 255
-0.159652  0.536865   1.37401 255 255 255
0.0894419 -0.293506   1.62722 255 255 255
-0.251658  0.453599    1.3429 255 255 255
-0.217294  0.517591   1.32218 255 255 255
-0.258454  0.430821   1.41795 255 255 255
-0.0562554   0.528132     1.6679 255 255 255
0.216771 0.113684  1.62061 255 255 255
-0.244203  0.379855   1.46581 255 255 255
-0.0452921   0.477493    1.96551 255 255 255
-0.117561  0.462923   1.99759 255 255 255
-0.325391  0.443626   1.27577 255 255 255
-0.000900992     0.504028      1.95133 255 255 255
 0.0895253 -0.0203108    1.81664 255 255 255
-0.0512704   0.522231    1.84652 255 255 255
-1.34422  -1.6177  3.02673 255 255 255
-0.200827   0.44837   1.41794 255 255 255
0.160458 0.108184  1.56712 255 255 255
-0.079469 -0.183687   1.95459 255 255 255
-0.344108  0.439996    1.2599 255 255 255
-0.0310382   0.544104    1.84239 255 255 255
 0.172136 0.0957523   1.56192 255 255 255
0.0252599  0.318554   1.66259 255 255 255
-0.250087  0.369449   1.90689 255 255 255
0.0832075  0.301993   1.67094 255 255 255
0.185107 0.161099  1.58921 255 255 255
-1.76614 -2.23522  2.80291 255 255 255
-0.102827  0.460776   1.80657 255 255 255
-0.131275  0.509151   1.45736 255 255 255
0.108819 0.177712  1.53536 255 255 255
-1.78428 -1.82647   1.9959 255 255 255
-0.315541  0.456077    1.2486 255 255 255
-0.164337  0.512277   1.38046 255 255 255
-0.180214  0.509773   1.37218 255 255 255
-0.108361  0.461888   1.80882 255 255 255
-0.0835703   0.542738    1.55734 255 255 255
-0.0765238   0.484846    1.86789 255 255 255
-1.73021 -1.94707  2.21257 255 255 255
 0.128897 0.0128565   1.77548 255 255 255
-0.0861452   0.471163    1.85932 255 255 255
-0.182732  0.449919   1.47893 255 255 255
-0.0238897   0.562739    1.71231 255 255 255
