ply
format ascii 1.0
element vertex 1139
property float x
property float y
property float z
property uchar red
property uchar green
property uchar blue
end_header
0.148022 -1.63367  5.65943 255 255 255
-0.177922  0.414494   1.48792 255 255 255
-0.528981   1.97381   5.66309 255 255 255
-0.476238   1.89143   5.71373 255 255 255
-0.258012  0.477154   1.31801 255 255 255
-0.035803  0.153217   1.48569 255 255 255
-0.246518  0.411989   1.45397 255 255 255
-0.115244   0.25838   1.52261 255 255 255
-0.341821  0.387513   1.38529 255 255 255
-0.605238  0.914353   6.00116 255 255 255
-0.000689218     -0.21358      1.50557 255 255 255
 -1.3349 -1.61064  3.08514 255 255 255
-0.296135  0.425185   1.43002 255 255 255
   0.105401 -0.00557623     1.54967 255 255 255
-0.0567206   0.483119    1.78924 255 255 255
-1.38336 -1.65922  2.96607 255 255 255
 0.121912 -0.270621   1.68295 255 255 255
-1.78569 -1.74571  2.54149 255 255 255
0.0393048  0.487607   1.90956 255 255 255
-1.32504 -1.60645  2.99974 255 255 255
-1.52526 -1.63303  3.19219 255 255 255
0.172845 0.203592  1.58578 255 255 255
-0.102087  0.454903   1.89038 255 255 255
-0.283628  0.393149   1.43869 255 255 255
-1.35956 -1.69997  2.99651 255 255 255
 -1.3696 -1.77853  2.96716 255 255 255
-0.074898  0.498248   1.69825 255 255 255
-1.53393 -1.60463  3.19875 255 255 255
-0.296802  0.407833   1.43351 255 255 255
-1.53262 -1.71857   2.9094 255 255 255
-0.0234095   0.535094    1.74847 255 255 255
-0.283213  0.375694   1.37232 255 255 255
  0.102741 -0.0138398    1.55942 255 255 255
0.0976364  -0.14912   1.58864 255 255 255
 0.223932 -0.013167   1.65144 255 255 255
-0.230908 0.0867364   1.51484 255 255 255
1.07837 1.51486  4.5265 255 255 255
0.0203462 0.0500608    1.4674 255 255 255
  1.4228 -1.47273  4.94644 255 255 255
-0.0209087 -0.0125055    1.47962 255 255 255
-0.152822 0.0635461   1.47806 255 255 255
0.000748597  -0.0921431      1.4865 255 255 255
-0.212437 -0.267633   1.58459 255 255 255
1.40684 1.44945 4.82723 255 255 255
-0.35873 0.395647   1.3731 255 255 255
0.193986 0.148732  1.62899 255 255 255
-0.0357897 -0.0421479    1.47861 255 255 255
-0.175874 -0.028413   1.47437 255 255 255
 -0.184491 -0.0929514    1.49253 255 255 255
 1.47455 -1.36252   4.9501 255 255 255
-0.0201894   0.609142     1.5456 255 255 255
-0.129565  0.427217   1.52507 255 255 255
1.35888 1.49515 4.71507 255 255 255
0.152643 0.225287  1.63482 255 255 255
 0.0969845 -0.0661904    1.50882 255 255 255
1.43877 1.38825 4.73136 255 255 255
 -0.186063 -0.0143744    1.46863 255 255 255
-0.225688  0.453631   1.34296 255 255 255
-0.0553481   0.583637    1.53064 255 255 255
-0.0398294   0.597771      1.525 255 255 255
-0.0679868   0.322471    1.55567 255 255 255
0.861923 -1.27849  5.27162 255 255 255
-0.291446  0.402665   1.39582 255 255 255
0.809225  1.79222  4.54627 255 255 255
-0.0265487  -0.026843    1.48051 255 255 255
-0.244567  0.343457   1.48382 255 255 255
-0.200371  0.364266   1.48765 255 255 255
 -0.17608 0.0841272   1.51414 255 255 255
0.176883 0.101416  1.55748 255 255 255
0.032172 0.576092  1.77179 255 255 255
-0.355529  0.407414   1.38273 255 255 255
 -0.276708 -0.0478225    1.53283 255 255 255
-0.211203  -0.17201   1.50782 255 255 255
-0.233176 -0.194568   1.52322 255 255 255
 1.32082 -1.64789  5.08968 255 255 255
-0.221769 -0.195787   1.51689 255 255 255
 -1.9616 -1.84445  6.33328 255 255 255
-0.282801  0.423297    1.3907 255 255 255
1.49512  1.3785 4.57226 255 255 255
1.52498 -1.4364 4.89036 255 255 255
-0.250226  0.351868    1.4702 255 255 255
-0.259073  0.359143   1.47313 255 255 255
0.735991 -1.67745  5.42499 255 255 255
-0.015423 -0.105859   1.47754 255 255 255
-0.185969 -0.229815   1.50581 255 255 255
-0.34043 0.412272  1.36681 255 255 255
-0.114339 -0.189212   1.48115 255 255 255
-0.250791 -0.016221   1.53025 255 255 255
-0.175634 -0.231151   1.50297 255 255 255
-0.0724116   0.177521    1.49264 255 255 255
0.742809 -1.43571  5.27615 255 255 255
-0.222335 -0.180184   1.51377 255 255 255
 0.41482 -1.78019   5.5613 255 255 255
-0.165638 -0.113137   1.48437 255 255 255
0.903466 -1.28889  5.20154 255 255 255
0.60901 1.35234 5.69286 255 255 255
1.68367 1.41773 5.00292 255 255 255
0.116495 0.270479   1.5625 255 255 255
-0.0591869 -0.0560091    1.48056 255 255 255
-0.325348  0.382927   1.41363 255 255 255
1.33549 1.46327 4.73241 255 255 255
-0.212257 -0.154048   1.50661 255 255 255
  0.118629 -0.0587897    1.52082 255 255 255
-0.151141  0.482337    1.4795 255 255 255
-0.35218 0.332526  1.51735 255 255 255
0.108093 0.183575  1.54176 255 255 255
-0.155508  0.456918   1.48718 255 255 255
0.175369 0.273972  1.52502 255 255 255
-0.131702 0.0576763   1.48493 255 255 255
-0.0853456 -0.0998344    1.48186 255 255 255
-0.0536885  -0.153851    1.47728 255 255 255
-0.0611889 0.00412308    1.47421 255 255 255
-0.219836 -0.148157   1.51202 255 255 255
-1.97045  -1.6258  6.24361 255 255 255
-0.0620448   0.596674    1.47398 255 255 255
1.00709 1.22933 5.60491 255 255 255
-1.89659 -1.49582   6.1899 255 255 255
-0.0757754    0.28149    1.53082 255 255 255
-0.196739  0.377857   1.48604 255 255 255
1.12929 1.30918   5.701 255 255 255
1.46203 1.43661 5.36809 255 255 255
-0.229723   0.43961   1.42188 255 255 255
-0.0735861  0.0314638    1.47424 255 255 255
-1.90194 -1.54553  6.21604 255 255 255
-0.0468069  0.0011564    1.47107 255 255 255
-0.228087  -0.24542   1.53607 255 255 255
-1.06137 0.777557  6.16045 255 255 255
-0.152058  0.483085   1.44655 255 255 255
-0.117594  -0.10996   1.48072 255 255 255
0.960931 -1.32967  5.36681 255 255 255
-0.138582 -0.202939   1.48867 255 255 255
0.893776  1.46527  5.61523 255 255 255
-0.0457998   0.102256    1.47994 255 255 255
1.10919 1.01496 3.94204 255 255 255
 1.37874 -1.35711  5.03613 255 255 255
-0.164865  0.427477   1.49727 255 255 255
-0.281049  0.429927   1.39212 255 255 255
-0.334296  0.400185    1.3795 255 255 255
-0.176937  -0.17473   1.49338 255 255 255
-0.104474   0.26883   1.52305 255 255 255
-0.122826 -0.143233   1.47826 255 255 255
 1.40446 -1.31093  4.95341 255 255 255
-0.129513  0.548127   1.40379 255 255 255
-0.0056173   0.170646    1.49099 255 255 255
0.272372 -1.67304  5.64138 255 255 255
0.151683 0.125584  1.56224 255 255 255
-0.0819373 -0.0876131     1.4815 255 255 255
-0.0820226 -0.0876111    1.48112 255 255 255
-0.0414999 -0.0246684     1.4774 255 255 255
 -0.17594 -0.144135   1.48841 255 255 255
-0.175947 -0.144004   1.48717 255 255 255
 0.139352 0.0580992   1.58197 255 255 255
0.0281376  0.140911   1.48678 255 255 255
-0.0477354   0.610422    1.48756 255 255 255
-0.240268 -0.204204   1.52655 255 255 255
-0.253779  0.434888   1.38945 255 255 255
-0.206756 -0.241018   1.52032 255 255 255
-0.0417627  -0.219257    1.49083 255 255 255
-0.0456549   0.158108    1.48591 255 255 255
 -0.130513 -0.0973098    1.48046 255 255 255
-0.150795  -0.12213   1.47919 255 255 255
 1.3203 1.38704 4.78748 255 255 255
-0.117414  0.531987   1.45273 255 255 255
  -0.0832 -0.119343    1.4752 255 255 255
1.45623 1.41446 4.97146 255 255 255
-0.404451  0.393611   1.38881 255 255 255
1.10329 1.15935 5.67007 255 255 255
0.406965 0.577815  2.54519 255 255 255
-0.203406 -0.174122   1.50649 255 255 255
1.04317 1.27349 5.69468 255 255 255
0.0483771  0.261934   1.54039 255 255 255
1.63831 1.36223 4.98882 255 255 255
-0.0769866   0.240005    1.51953 255 255 255
0.343199   -1.847  5.59059 255 255 255
0.0153679  0.290761   1.55146 255 255 255
0.935617 -1.34665  5.24239 255 255 255
-0.0987691   0.262133     1.5239 255 255 255
-0.358058  0.408218   1.31104 255 255 255
-0.394233  0.396985   1.38133 255 255 255
0.291715 -1.89426   5.8945 255 255 255
-0.346792  0.435712   1.31917 255 255 255
-0.0351458  0.0720923    1.46946 255 255 255
 1.38613 -1.39838  5.06157 255 255 255
-0.200566 -0.143791   1.50145 255 255 255
0.0341531 -0.214665   1.51299 255 255 255
-1.86769 -1.67534  6.25839 255 255 255
0.390586 -1.84911   5.6142 255 255 255
-0.154092  0.516132   1.40066 255 255 255
 -0.15778 -0.123397   1.48243 255 255 255
-0.449349  0.407702   1.37873 255 255 255
-0.0413908  -0.018009    1.47413 255 255 255
  -1.836 -1.54034  6.29514 255 255 255
0.0743771 -0.176584   1.52233 255 255 255
 1.51876 -1.25145  4.96579 255 255 255
0.838316 -1.41583  5.28079 255 255 255
-0.285532  0.428263   1.38514 255 255 255
-0.347439  0.408311   1.31358 255 255 255
-0.0563337    0.20446    1.50219 255 255 255
0.507058 -1.81023  5.71078 255 255 255
-0.201114  0.406081   1.48285 255 255 255
-0.0896832   0.166753    1.48996 255 255 255
1.01983 1.54267 4.76206 255 255 255
-0.0573994   0.116919    1.48211 255 255 255
1.13633 1.06786 3.89001 255 255 255
1.66627 1.41392 4.88741 255 255 255
 -0.16781 -0.200441   1.49949 255 255 255
-0.0633832   0.564355    1.52565 255 255 255
0.461841 -1.80196  5.63453 255 255 255
0.710564  1.60242  5.60626 255 255 255
0.919386  1.81511  4.50755 255 255 255
-0.119491  0.164527   1.49737 255 255 255
-0.0112801   0.163708    1.49168 255 255 255
 -0.2094 0.450209  1.41938 255 255 255
0.853628 -1.53697  5.17049 255 255 255
-0.338149  0.367002   1.42682 255 255 255
-0.012917  0.172015   1.49449 255 255 255
-0.0699416   0.511264    1.57294 255 255 255
-0.255251  0.470565   1.33562 255 255 255
-0.272737  0.474751   1.32749 255 255 255
-0.244747 -0.059261   1.51976 255 255 255
0.883946  1.43828  5.63033 255 255 255
 1.30755 -1.35649  4.95705 255 255 255
 1.50848 -1.44094  4.86914 255 255 255
1.09963 1.18991 5.68494 255 255 255
 -0.10571 -0.254872    1.5084 255 255 255
-0.139463 -0.125835   1.47913 255 255 255
-2.12352  -1.6276  5.75505 255 255 255
 -0.3523 0.424368   1.3145 255 255 255
-0.29292 0.464553  1.32105 255 255 255
0.878847 -1.45169  5.24887 255 255 255
-0.261289  0.489103   1.33085 255 255 255
-0.188765 -0.243419   1.50912 255 255 255
-0.11135 0.126524  1.49187 255 255 255
-0.272867  0.387965   1.45466 255 255 255
-2.03115 -1.51485  6.30125 255 255 255
-0.0797899  0.0800114    1.47909 255 255 255
-0.256978  0.413314   1.42251 255 255 255
0.756361 -1.40184  5.26526 255 255 255
-0.252986 -0.227043   1.54528 255 255 255
-0.0431942  -0.149759    1.47695 255 255 255
-0.184613 -0.261725   1.67218 255 255 255
-0.0424623  0.0933107     1.4961 255 255 255
-1.48229 -1.70685  2.94635 255 255 255
-0.0860758   0.459308    1.74222 255 255 255
0.0710713  0.713653   1.67304 255 255 255
-0.276059  0.401313   1.42555 255 255 255
-0.202918  0.453583   1.42513 255 255 255
0.084081 -1.39002  5.75052 255 255 255
0.193797  0.11374   1.5839 255 255 255
  0.109993 -0.0498433    1.51429 255 255 255
-0.0692715   0.563709    1.51928 255 255 255
0.0136036  0.613768   1.65804 255 255 255
-0.90049 0.741067  6.18361 255 255 255
-0.0176423   0.552878     1.6433 255 255 255
-0.193973  0.406833   1.45954 255 255 255
-0.163748  -1.26122   5.44654 255 255 255
-1.12639 0.722559  6.14258 255 255 255
-0.171717  0.474413   1.41958 255 255 255
0.00335736   0.584307    1.63812 255 255 255
 0.07112 0.666011  1.82013 255 255 255
-0.0709829   0.576844    1.47327 255 255 255
-0.198092  0.502677   1.33708 255 255 255
-0.177684    0.4229   1.48463 255 255 255
-0.130894 0.0761995   1.49296 255 255 255
-0.348258  0.361347   1.43681 255 255 255
-0.143015  0.539493   1.38677 255 255 255
-0.00813318    0.655302     1.54289 255 255 255
-0.769825  0.725522   6.13389 255 255 255
  -0.142518 -0.00991266     1.50161 255 255 255
0.117708 0.171453  1.53251 255 255 255
0.0562536  0.612594   1.80385 255 255 255
0.0617313  0.609445   1.79106 255 255 255
-0.191047   1.49516   5.75414 255 255 255
-0.191314  0.488361   1.35108 255 255 255
-0.136675   0.55216    1.3622 255 255 255
-0.270817  0.338834   1.48011 255 255 255
-0.0547239   0.474756    1.95998 255 255 255
-0.172498  0.515148   1.36567 255 255 255
-0.468525   1.32489   5.87988 255 255 255
 0.03368 0.563299  2.01602 255 255 255
-0.00776274    0.476861     1.80405 255 255 255
-0.260117  0.415322   1.40872 255 255 255
0.00142697   0.638025    1.55618 255 255 255
-0.191411  0.525375   1.33361 255 255 255
-0.105156 -0.205502   1.49909 255 255 255
 0.100229 0.0115719   1.55164 255 255 255
-0.257012   1.34005    5.7909 255 255 255
-0.00784159    0.660392     1.53215 255 255 255
-0.234596  0.433777   1.39178 255 255 255
-0.589677  0.796099   6.09921 255 255 255
-0.635539   1.41806   6.00165 255 255 255
-0.0474367    1.51142    5.87411 255 255 255
-0.00630145    0.520167      1.7193 255 255 255
-0.264415  0.446036   1.35246 255 255 255
-0.0604192    1.11373    5.85106 255 255 255
-0.154856  0.520928   1.38324 255 255 255
-0.297656  0.884694   5.93706 255 255 255
-0.263884  0.622006   5.06959 255 255 255
 0.126479 -0.250923   1.70858 255 255 255
-0.0386805   -0.19336     1.4955 255 255 255
-0.0561448    0.61039     1.4608 255 255 255
-0.327182  0.107344   4.71287 255 255 255
0.0643186  0.593283   1.91943 255 255 255
0.183628 0.122963  1.60446 255 255 255
-0.158339  0.486487   1.39641 255 255 255
   0.10613 0.00348894     1.5278 255 255 255
0.0116954  0.568628   1.70237 255 255 255
-0.0729096 -0.0365284    1.48439 255 255 255
-0.512126   1.40266   6.08317 255 255 255
 0.128912 -0.061103   1.54585 255 255 255
0.00421029   0.602016     1.6536 255 255 255
 0.13205 0.216147  1.57456 255 255 255
0.256112 -1.56314  5.49107 255 255 255
-1.39408  -1.7431  2.91183 255 255 255
-0.168123  0.480101   1.38027 255 255 255
-0.000679494     0.549279      1.67755 255 255 255
-0.133091  0.497644   1.44994 255 255 255
0.021352 0.853798  2.32149 255 255 255
0.0163582    0.5291   1.85581 255 255 255
-0.0868752   0.561064    1.48084 255 255 255
  -0.273 0.463222  1.32174 255 255 255
-1.46601 -1.67528  2.90078 255 255 255
-0.188922  0.505694   1.34621 255 255 255
-0.122587  0.493131   1.49314 255 255 255
0.120216 0.628794   4.8898 255 255 255
-0.0900356   0.499721    1.55511 255 255 255
-0.0952422   0.501108    1.56553 255 255 255
 -0.165745 0.00218718    1.50681 255 255 255
-0.0933972  -0.103405    1.48356 255 255 255
0.0279498  0.539775   1.78521 255 255 255
-0.0438586   0.605871    1.50373 255 255 255
-0.193944   1.38013   5.86387 255 255 255
-0.0516801   0.565045    1.53645 255 255 255
-0.192652  0.520032   1.33518 255 255 255
-0.0519466   0.614116    1.46775 255 255 255
-0.0571574   0.585479    1.50087 255 255 255
-0.00134807    0.587846     1.63606 255 255 255
-0.0719066   0.266663    1.53496 255 255 255
-0.0168438   0.633581    1.54621 255 255 255
-0.130013  0.435155   1.51567 255 255 255
-0.0740802   0.571352    1.47651 255 255 255
-0.0496687   0.620542    1.46952 255 255 255
-0.197978  0.383815   1.48183 255 255 255
-1.36546 -1.77227  2.91458 255 255 255
-0.294869  0.429991   1.37898 255 255 255
-0.117255  0.528474   1.45432 255 255 255
  -0.142755 -0.00467306      1.4804 255 255 255
-0.164046 -0.193782   1.50449 255 255 255
-0.0987628   0.528573    1.48963 255 255 255
-0.0505212   0.570503    1.54869 255 255 255
-0.229023  0.297943   1.49732 255 255 255
-0.0583286    0.59376    1.49009 255 255 255
-0.049151  0.604948   1.49462 255 255 255
0.185415 0.167825  1.62836 255 255 255
  0.109047 -0.0615514    1.50641 255 255 255
 -1.5056 -1.66086  2.99178 255 255 255
0.025073 0.294239  1.54869 255 255 255
-0.00224228    0.551313     1.71219 255 255 255
-0.0175559    1.09376    5.86484 255 255 255
-0.0476756    0.60203    1.50092 255 255 255
-0.604384  0.916608   5.99058 255 255 255
-0.473672   1.57186   5.80572 255 255 255
-0.00795816    0.644801      1.5468 255 255 255
-0.195358  0.398192   1.47338 255 255 255
-1.42317 -1.70077  2.86109 255 255 255
0.0753939  0.626339   1.80087 255 255 255
-1.52984 -1.56163   3.0288 255 255 255
 0.19584 0.694128  2.83023 255 255 255
-0.283106  0.431086    1.3665 255 255 255
0.047825 0.579349  2.02477 255 255 255
-0.0975265   0.549835    1.45744 255 255 255
-0.0325358   0.603359    1.53723 255 255 255
-0.259691  0.467545   1.32971 255 255 255
-0.0797765   0.206601    1.50551 255 255 255
-0.823393   0.71131   6.12747 255 255 255
-0.0626547   0.481967     1.6894 255 255 255
0.198248 -1.40343  5.52808 255 255 255
 -0.070431 -0.0293572     1.4833 255 255 255
-0.0330265   0.505942    1.74846 255 255 255
-0.00687026    0.163669     1.48326 255 255 255
 -0.121593 -0.0931248    1.48435 255 255 255
-0.330883  0.876545   5.99348 255 255 255
0.0308332  0.216394   1.51071 255 255 255
-0.335207  0.400447    1.3797 255 255 255
-0.260686  0.405865   1.41821 255 255 255
0.0977035 0.0939246   1.52529 255 255 255
-0.0561735   0.102907    1.48256 255 255 255
 -0.2377 0.299701  1.49435 255 255 255
 -0.165217 -0.0437025    1.46617 255 255 255
0.126281  0.15932   1.5639 255 255 255
-0.0917971   0.364258    1.57498 255 255 255
-0.226029 -0.334958   1.70646 255 255 255
-0.42176 0.449684  1.25517 255 255 255
-0.14183 0.400169  1.52877 255 255 255
-0.211382  0.504107   1.25989 255 255 255
1.05437 1.12198 3.29703 255 255 255
-0.11084 0.469394  1.51389 255 255 255
-0.29703  0.49291  1.22494 255 255 255
-0.416596  0.407886   1.35754 255 255 255
-0.311256   0.45638   1.30985 255 255 255
-0.273304  0.423679   1.39234 255 255 255
-0.302159  0.353903   1.46369 255 255 255
-0.399698   0.39686   1.38253 255 255 255
-0.316785  0.456661   1.25898 255 255 255
-0.33529 0.389876  1.48298 255 255 255
-0.399904  0.369489   1.38055 255 255 255
-0.152381 0.0192147   1.47485 255 255 255
-0.417478  0.416207   1.30057 255 255 255
-0.073691  0.312441   1.55261 255 255 255
-0.242186  0.491188   1.30934 255 255 255
-0.363008 0.0401563   1.74482 255 255 255
1.11485 1.10427 3.65448 255 255 255
-0.211867  0.474566   1.28853 255 255 255
-0.459107  0.426477   1.29643 255 255 255
-0.456131  0.423648   1.35442 255 255 255
-0.452613  0.487711   1.21128 255 255 255
-0.260316  0.505922   1.25609 255 255 255
-0.356924  0.344589   1.48369 255 255 255
-0.357095  0.348837   1.50453 255 255 255
1.07187 1.17838 3.24988 255 255 255
1.22416 1.13627 3.71633 255 255 255
-0.472928  0.477723   1.21382 255 255 255
-0.432271  0.450578   1.23577 255 255 255
-0.320896  0.500657   1.22689 255 255 255
-0.429926  0.409929   1.33207 255 255 255
-0.41349  0.43469  1.43314 255 255 255
-0.936875   0.58608   4.87842 255 255 255
-0.264544  0.479276   1.30389 255 255 255
-0.389415  0.407694   1.30746 255 255 255
-0.425882    0.4775   1.22318 255 255 255
-0.384544  0.352657   1.42652 255 255 255
 -0.11935 0.0622143   1.49745 255 255 255
-0.321952  0.487061   1.23467 255 255 255
-0.44124 0.482658  1.21871 255 255 255
-0.421207  0.399483   1.37216 255 255 255
-0.637301  0.265909   7.53868 255 255 255
-0.360489  0.444189   1.30905 255 255 255
-0.459799  0.408267   1.36198 255 255 255
-0.146805  0.471643   1.45899 255 255 255
-0.415764   0.34769   1.43406 255 255 255
-0.0167269 -0.0459124    1.48147 255 255 255
-0.400046  0.431368   1.28754 255 255 255
-0.225661  0.445263   1.32313 255 255 255
 -0.29306 -0.302037    1.6818 255 255 255
-0.352134  0.409667   1.50817 255 255 255
1.03803  1.2413 3.30747 255 255 255
-0.363255  0.475165   1.22884 255 255 255
-0.37616 0.423729  1.49916 255 255 255
-0.470105  0.461454   1.23221 255 255 255
-0.263171  0.466807   1.32928 255 255 255
 -0.186386 -0.0139001    1.46616 255 255 255
-0.446298   0.45444   1.23523 255 255 255
-0.42339 0.369726  1.46181 255 255 255
-0.400778  0.442422   1.23312 255 255 255
  -0.27913 -0.0490316    1.55575 255 255 255
  -0.239262 -0.00771536     1.51859 255 255 255
-0.379906  0.364254   1.40583 255 255 255
-0.477681  0.462679   1.22015 255 255 255
0.982843  1.01372  3.82912 255 255 255
-0.332026  0.475484   1.27139 255 255 255
-0.406661  0.470511   1.22663 255 255 255
-0.424682  0.438633   1.23521 255 255 255
-0.374949 -0.132242   1.76152 255 255 255
-0.363725  0.450688   1.22843 255 255 255
-0.24206 0.400266  1.47405 255 255 255
-0.379932  0.486975   1.21848 255 255 255
 -0.200438 -0.0797653     1.4716 255 255 255
-0.361779  0.446577   1.25646 255 255 255
-0.369218  0.494495   1.21576 255 255 255
-0.449375  0.440396   1.25524 255 255 255
-0.00270833    0.575287     1.67107 255 255 255
-0.0684609  -0.172869    1.47827 255 255 255
-0.386009  0.447092   1.24122 255 255 255
-0.403996  0.376335   1.48289 255 255 255
-0.318175   0.29774    1.5472 255 255 255
-1.8452 -1.3875  6.4347 255 255 255
-0.329998   0.35585   1.48149 255 255 255
-0.446473  0.367725   1.71582 255 255 255
-0.327775  0.353778   1.47163 255 255 255
-0.365527  0.469783   1.23802 255 255 255
-0.052214   0.50599   1.60423 255 255 255
-0.496135  0.454235   1.27452 255 255 255
   0.116018 -0.00521997     1.53408 255 255 255
-0.442416  0.418076   1.31224 255 255 255
-0.448433  0.422522   1.47641 255 255 255
-0.378511  0.372104   1.47855 255 255 255
-0.372967  0.383543   1.39284 255 255 255
0.034322 0.655733  1.57312 255 255 255
-0.345205  0.458268   1.23116 255 255 255
-0.173483   0.02007   1.49341 255 255 255
-0.0353724   0.504077    1.77164 255 255 255
-0.460032   0.43892   1.26647 255 255 255
-0.386703  0.465076   1.23152 255 255 255
-0.0984262  -0.200775    1.48019 255 255 255
-0.428002  0.459158   1.23306 255 255 255
-0.446726  0.433839   1.27865 255 255 255
 1.00625 -1.71177   5.4715 255 255 255
-0.411637  0.433894   1.28697 255 255 255
-0.16075 0.482083   1.4789 255 255 255
-0.36466 0.437302  1.29949 255 255 255
-0.439614  0.437673   1.28122 255 255 255
-1.48796 0.767194  6.60729 255 255 255
-0.418449   0.46256   1.22761 255 255 255
-0.421646  0.430523    1.2913 255 255 255
1.31835 1.06857 3.76361 255 255 255
-0.45823 0.433349  1.28777 255 255 255
-0.0475286   0.507046    1.68606 255 255 255
-0.0511608   0.307975    1.53958 255 255 255
-0.464327  0.436943   1.28343 255 255 255
0.0193882  0.586633   1.73722 255 255 255
-0.484921  0.444849   1.27053 255 255 255
-0.138465 -0.183991   1.48577 255 255 255
-1.90946 -1.74079  6.29108 255 255 255
-0.36601 0.454658  1.25914 255 255 255
-0.199481 -0.079775    1.4875 255 255 255
-0.288749  0.458652   1.32548 255 255 255
-0.434368  0.437874   1.24053 255 255 255
-0.396183  0.427483   1.30248 255 255 255
 -0.182941 -0.0871544    1.48817 255 255 255
-0.352099  0.416953   1.32455 255 255 255
  0.154619 -0.0128987    1.60723 255 255 255
0.0393102 -0.150101   1.50663 255 255 255
-0.368299   0.47992   1.22247 255 255 255
-0.25284 0.377717  1.46441 255 255 255
-0.24377 0.337427  1.49508 255 255 255
-0.256575 -0.334666   1.67062 255 255 255
-0.386609  0.435023   1.25237 255 255 255
1.05097 1.14339 3.70079 255 255 255
-0.361819  0.354576   1.46941 255 255 255
1.06693 1.26292 3.38812 255 255 255
1.18643 1.08504 3.95368 255 255 255
-0.382245  0.405754    1.3079 255 255 255
-0.392205  0.347751    1.4787 255 255 255
-0.504638  0.450853   1.26521 255 255 255
-0.40555 0.396922  1.37143 255 255 255
-0.318802   0.15547   1.70147 255 255 255
-0.308233  0.391063   1.40098 255 255 255
 -0.144001 -0.0740623    1.45538 255 255 255
 -1.1591 0.932162  6.17821 255 255 255
-0.451768  0.455335   1.22972 255 255 255
-0.204943 -0.129496   1.50118 255 255 255
1.08994 1.04741 3.60865 255 255 255
-1.48482  1.29818  6.48897 255 255 255
 -1.7843 0.948731  6.55582 255 255 255
-0.478645  0.445222   1.25562 255 255 255
-0.402778  0.415436   1.30488 255 255 255
-0.196257 -0.212293    1.5111 255 255 255
1.04432 1.17583 3.37661 255 255 255
-0.093182  0.474737    1.5611 255 255 255
-0.222541  -0.18005   1.51854 255 255 255
0.186772 0.269349  1.71554 255 255 255
-0.209718  0.518473   1.27677 255 255 255
  0.143651 -0.0281122    1.57284 255 255 255
-0.373919   0.48175    1.2233 255 255 255
-0.062425 -0.157886   1.48201 255 255 255
-0.192647  0.534482   1.27045 255 255 255
-0.0701122   0.213687    1.49904 255 255 255
1.14041 1.08455 3.62933 255 255 255
-0.399896  0.386908    1.3893 255 255 255
 -0.088132 -0.0451308    1.48635 255 255 255
-0.415081   0.42609   1.49477 255 255 255
 0.116746 -0.192987   1.55903 255 255 255
-0.272272  0.115929   1.58224 255 255 255
-0.0457522   0.102905    1.48021 255 255 255
-0.368896  0.382262    1.4708 255 255 255
-0.177771 -0.129527   1.48659 255 255 255
-0.287866  0.392268    1.4054 255 255 255
  -0.327 0.440824  1.30812 255 255 255
-0.41642 0.341729  1.62371 255 255 255
0.0743507 -0.228022   1.54828 255 255 255
-0.327452  0.151219   1.72042 255 255 255
0.128868 0.279029  1.57697 255 255 255
-0.229719 -0.168171   1.51112 255 255 255
-0.168184  0.483303   1.46474 255 255 255
-0.299473  0.412503   1.39223 255 255 255
-0.182821  0.419959   1.50693 255 255 255
-0.45826  0.44693  1.22881 255 255 255
-0.342232  0.409119   1.32969 255 255 255
-1.40305  1.22705  6.68417 255 255 255
-0.229558 -0.144743   1.50668 255 255 255
1.04835 1.30875 3.30345 255 255 255
-0.474325  0.448995   1.26336 255 255 255
-0.228794  -0.24545   1.54007 255 255 255
  0.181395 -0.0313288    1.61702 255 255 255
 0.109867 -0.203921   1.56267 255 255 255
-0.301896  0.434025   1.38894 255 255 255
-0.476187  0.453789   1.24091 255 255 255
-0.0822783   0.539373    1.44883 255 255 255
-0.160774  0.507018   1.38611 255 255 255
-0.453971  0.459267   1.22739 255 255 255
 -0.17228 -0.257807   1.51576 255 255 255
-0.041991   0.55464    1.5561 255 255 255
-0.134417 0.0887725   1.49556 255 255 255
 -1.58063 0.0965502   5.22549 255 255 255
1.28301 1.03368   3.778 255 255 255
-0.470717  0.440757   1.25709 255 255 255
-0.412979   0.46043   1.23947 255 255 255
1.12767 1.11692   3.629 255 255 255
  0.181022 -0.0416161    1.60376 255 255 255
1.44481 1.45391 5.29964 255 255 255
-0.177305  0.389352    1.4944 255 255 255
1.03845 1.31033  3.3302 255 255 255
-0.272242 -0.101852   1.53603 255 255 255
 -0.1759 0.458274  1.45643 255 255 255
-0.172731  0.467956   1.50407 255 255 255
-0.344868  0.438574   1.26316 255 255 255
-0.0711211  0.0426075    1.47668 255 255 255
-0.0105751    0.19522     1.5067 255 255 255
-0.0972778  -0.184959    1.47628 255 255 255
-0.179779  0.457367   1.49268 255 255 255
-0.509499  0.449345   1.28058 255 255 255
-0.206733  -0.15383   1.49623 255 255 255
-0.0363358   0.290623    1.53274 255 255 255
0.0324534  0.239785   1.51985 255 255 255
  0.183864 -0.0401065    1.63439 255 255 255
-0.144939  0.475264   1.50032 255 255 255
 -0.156442 -0.0837701    1.47639 255 255 255
-0.46345 0.455862  1.23057 255 255 255
-1.48253  1.54934  6.58258 255 255 255
0.0930267 -0.002063    1.5332 255 255 255
-0.259561 0.0259486   1.53553 255 255 255
-0.266061 -0.143789   1.52856 255 255 255
-0.362079  0.326901   1.53783 255 255 255
-0.343258  0.442337    1.2978 255 255 255
-0.0547415  -0.124764    1.46947 255 255 255
-0.208199  0.497422   1.31649 255 255 255
-0.193606 -0.106488   1.49785 255 255 255
-1.20794 0.051004  5.13348 255 255 255
-0.0598448  -0.127503    1.47451 255 255 255
-0.434788  0.469526   1.44057 255 255 255
-0.198444  0.446499   1.47499 255 255 255
-0.0360591  -0.159102    1.47348 255 255 255
-0.122888  0.439178   1.49315 255 255 255
-0.309454  0.340764   1.46176 255 255 255
-0.254828 -0.117149   1.52129 255 255 255
1.20595 1.10102 3.76819 255 255 255
-0.276187   0.40709   1.43998 255 255 255
-0.485326  0.437945   1.28823 255 255 255
-0.412763  0.399475   1.36786 255 255 255
-1.02269 0.706651   4.8397 255 255 255
1.27923 1.13328 3.85031 255 255 255
-0.345881  0.445799   1.29101 255 255 255
-0.407338  0.388442   1.39549 255 255 255
0.151129 0.125752   1.5601 255 255 255
-0.235865    0.4518    1.4581 255 255 255
0.0611654  0.250289   1.53197 255 255 255
-1.22594 0.917162  4.72735 255 255 255
-0.0317309   0.352755    1.60546 255 255 255
-0.406845  0.459223    1.2339 255 255 255
-0.256764  0.420078   1.40142 255 255 255
 -0.213835 -0.0447578    1.46896 255 255 255
-0.356653  0.422595   1.31266 255 255 255
-0.00762401    0.220185     1.49597 255 255 255
-0.258392  0.435891   1.33579 255 255 255
-0.947495  0.040882    5.2219 255 255 255
-0.587187  0.048084   5.16186 255 255 255
-0.383443  0.424528   1.31578 255 255 255
   0.143285 -0.00065441     1.59796 255 255 255
 -0.4662 0.481427  1.21496 255 255 255
-0.240456  0.419052   1.40795 255 255 255
-0.163261 -0.165172   1.50575 255 255 255
-0.165895  0.504023    1.3825 255 255 255
-0.225735  0.516141   1.26673 255 255 255
0.0127051  0.107855   1.48174 255 255 255
-0.259592 0.0599126   1.53783 255 255 255
0.0138964 -0.136044   1.48622 255 255 255
-0.973191  0.039698   4.00935 255 255 255
0.00389659   0.281374    1.53748 255 255 255
-0.35647  0.43848  1.28457 255 255 255
-0.0616444  0.0460046      1.471 255 255 255
-0.265186  0.123114   1.55862 255 255 255
-0.402588  0.458225   1.23425 255 255 255
-0.392049  0.295927   1.62439 255 255 255
-0.199563 -0.233134   1.52118 255 255 255
-1.66835  0.12871  5.37894 255 255 255
-0.349023  0.420929   1.31598 255 255 255
1.05403  1.1863  3.3578 255 255 255
-0.196696 -0.136436   1.52028 255 255 255
 0.18802 -1.19677  3.98897 255 255 255
-1.05617 0.039791  5.09095 255 255 255
-0.0605517   0.487682    1.68914 255 255 255
 -0.213837 -0.0973901    1.50466 255 255 255
-0.104425  0.172452   1.49669 255 255 255
-0.0193255   0.282448    1.53611 255 255 255
-0.0327278   0.588649    1.53571 255 255 255
-0.438061  0.408013   1.37564 255 255 255
-0.0656983 -0.0334614    1.47611 255 255 255
-0.191789 -0.215332   1.50263 255 255 255
-0.320781  0.353667   1.48247 255 255 255
0.888995 -1.12305  4.03988 255 255 255
0.0162312  0.266777   1.52542 255 255 255
0.0146735  0.192189   1.48704 255 255 255
 0.142804 -0.193709   1.62347 255 255 255
0.96902 1.08252 3.81921 255 255 255
-0.0696129   0.261655    1.62773 255 255 255
 0.119524 -0.134464   1.61946 255 255 255
0.0878258 0.0636941     1.532 255 255 255
 -0.216309 -0.0426326    1.54035 255 255 255
-0.184559  0.413202   1.47433 255 255 255
-0.063291  0.171153   1.44661 255 255 255
-0.0504912  0.0608976    1.44756 255 255 255
0.133109 0.265611  1.62917 255 255 255
0.139467 0.010885    1.606 255 255 255
-0.148366 0.0627499   1.46697 255 255 255
0.163412 0.153849  1.63881 255 255 255
-0.20105  0.47193  1.40176 255 255 255
-0.0513533   0.524084    1.62014 255 255 255
0.217404 0.103209  1.61234 255 255 255
0.0359325  0.557076   1.81926 255 255 255
  0.123756 -0.0254323    1.54773 255 255 255
  0.163343 -0.0564132     1.5698 255 255 255
     -0.2494 -0.000162486      4.64403 255 255 255
-0.196307 -0.253739   1.52739 255 255 255
-0.0309281   0.554137    1.56965 255 255 255
-1.40437 -1.82143  2.93471 255 255 255
0.190988 0.112331    1.597 255 255 255
-1.39241 -1.72289  2.86147 255 255 255
  0.166277 -0.0317231    1.70934 255 255 255
-0.144263  -1.22151   5.36117 255 255 255
-0.104351  0.469722    1.5389 255 255 255
  0.161514 -0.0147264    1.72481 255 255 255
-0.00246744    0.570149     1.66036 255 255 255
-0.175107 0.0769919   1.51922 255 255 255
-0.192274  0.464724   1.42033 255 255 255
0.126504  0.16482  1.53822 255 255 255
-0.0150441   0.344161    1.70788 255 255 255
-0.218476  0.709923   5.07354 255 255 255
    0.136669 -0.000122648       1.7928 255 255 255
0.0033641  0.532132   1.71869 255 255 255
-0.0906986  -0.174949    1.48954 255 255 255
-0.00627083    0.582573     1.62434 255 255 255
0.158975 0.193003  1.59679 255 255 255
 0.13541 0.287474   1.6444 255 255 255
-1.32882 -1.64283  3.00245 255 255 255
-1.34902  -1.6475  3.07977 255 255 255
 0.123892 -0.257104   1.69048 255 255 255
0.0236725  0.550688   1.82392 255 255 255
-1.44988 -1.66254  2.92923 255 255 255
-0.229623  0.435409   1.44204 255 255 255
-0.0767887   0.507549     1.6234 255 255 255
-0.151635   0.47541   1.46837 255 255 255
-0.357775  0.412898   1.36123 255 255 255
-0.658994   1.80573   5.72133 255 255 255
0.0620761  0.283228   1.54616 255 255 255
0.0356815  0.564161   1.82552 255 255 255
0.0686635 -0.226309   1.55289 255 255 255
-0.0489023    0.30684      1.558 255 255 255
-1.02034  1.65365  5.96757 255 255 255
-0.270257    1.4183    5.7424 255 255 255
 0.059951 -0.231591   1.52082 255 255 255
-1.35047 -1.70649  2.88563 255 255 255
0.180576  0.16342  1.61384 255 255 255
-0.000712477     0.548954      1.74793 255 255 255
-0.137395 -0.139354   1.49258 255 255 255
-0.186387  0.507439   1.35658 255 255 255
-0.52773  1.19217  6.05084 255 255 255
 0.13984 0.276736  1.58615 255 255 255
-0.231027   1.14152   5.82064 255 255 255
0.0245945  0.541647   1.83516 255 255 255
-0.164242  0.455075   1.41664 255 255 255
-1.60362 0.990467  6.52076 255 255 255
  0.161642 -0.0262919     1.6605 255 255 255
-0.380071   1.12626   5.97569 255 255 255
0.0147378  0.546129   1.84057 255 255 255
-0.158544  0.408157   1.50671 255 255 255
0.0125576 -0.256886   1.55613 255 255 255
-1.38535 -1.73651  2.94961 255 255 255
-1.45713 -1.81463  2.87466 255 255 255
0.128288 0.171055  1.54644 255 255 255
-0.650522   1.43055   6.06814 255 255 255
-0.0934374   0.518174    1.41784 255 255 255
-0.0282742   0.558081    1.59832 255 255 255
0.0166715  0.527752   1.83273 255 255 255
-1.0205 1.79015 5.92889 255 255 255
   0.154579 0.000640946     1.71534 255 255 255
-0.00708246    0.507894     1.70217 255 255 255
-0.0564676    0.54818     1.5802 255 255 255
-0.182226 0.0233161   1.48688 255 255 255
-0.15854 0.457767  1.47939 255 255 255
-0.350082  0.407514   1.36525 255 255 255
-0.0975292    0.54075    1.46824 255 255 255
-0.210755  0.437479   1.40867 255 255 255
-0.0878332   0.468962    1.61743 255 255 255
-0.248449   1.27054   5.79061 255 255 255
-0.00937553    0.549864     1.71447 255 255 255
-0.135532  0.152766   1.50966 255 255 255
-0.0858339   0.491693     1.5523 255 255 255
-0.082742  0.508367   1.46569 255 255 255
0.0619497  0.306261   1.60718 255 255 255
-0.177481  0.525031   1.39987 255 255 255
0.038274  0.27536  1.54772 255 255 255
0.0395821   0.27472   1.54602 255 255 255
 0.093387 -0.286798   1.64252 255 255 255
-0.102017  0.501736   1.62893 255 255 255
-0.210798 0.0785635   1.53029 255 255 255
0.0395363 -0.168658    1.5032 255 255 255
-0.30489 0.350598  1.46236 255 255 255
-0.0910226  -0.165234    1.48297 255 255 255
  0.109778 -0.0537083    1.49824 255 255 255
-0.113766  0.512072   1.47053 255 255 255
-0.0402561   0.464301     1.8597 255 255 255
0.0677551 -0.307352   1.63355 255 255 255
-0.0573719   0.501835    1.59076 255 255 255
-0.530315   1.39644   6.00532 255 255 255
-0.0731993  -0.162946    1.47435 255 255 255
-0.232909  0.442999   1.43902 255 255 255
  -0.3379 0.0662467   4.68374 255 255 255
-0.0113975  -0.161128    1.48001 255 255 255
0.0357829 -0.256154    1.5387 255 255 255
0.0824438 -0.272002    1.6094 255 255 255
0.000848125    0.570631     1.70947 255 255 255
-0.0356271   0.507354    1.73332 255 255 255
0.00723256   0.587427    1.63952 255 255 255
-0.0305016   0.180152     1.4895 255 255 255
-0.0693564 0.00330269    1.48757 255 255 255
   0.106369 0.000481055     1.59947 255 255 255
0.0077404   0.23875   1.52084 255 255 255
-0.0936437   0.481483    1.55521 255 255 255
   0.115156 -0.00167793     1.59364 255 255 255
-0.166688  0.465267   1.33467 255 255 255
-0.275741  0.411062   1.44488 255 255 255
-0.104711  0.516454   1.48007 255 255 255
0.213234 0.555862  2.24464 255 255 255
-0.156174 -0.169543   1.49814 255 255 255
-0.0684195  -0.174042    1.47848 255 255 255
-0.0665847   0.176101    1.50856 255 255 255
0.117399 0.278299   1.5576 255 255 255
-0.383659   0.11487   4.86286 255 255 255
-0.0974948   0.482063    1.60993 255 255 255
-0.383232   1.30915   5.95207 255 255 255
-0.618891   1.27518   5.88483 255 255 255
-0.0166266   0.513937    1.68296 255 255 255
-0.246675   1.24265   5.78228 255 255 255
-0.061828  0.529099    1.4905 255 255 255
-0.0498386   0.333759    1.56001 255 255 255
-0.216253  0.441364   1.42981 255 255 255
0.116869 0.172481  1.54726 255 255 255
-0.131936 -0.117936   1.48758 255 255 255
-0.247981  0.412112   1.45589 255 255 255
0.0302194  0.263478   1.53676 255 255 255
-0.0767581   0.232533    1.53025 255 255 255
-0.253259  0.396021   1.43041 255 255 255
-0.0913586   0.476085    1.56452 255 255 255
-0.0812301   0.525788     1.4509 255 255 255
-1.65002 -1.70207  3.10878 255 255 255
-0.0735827   0.231401     1.5139 255 255 255
-0.0119904   0.203937    1.50011 255 255 255
  0.120438 -0.0208348    1.58153 255 255 255
0.0467984  0.223869   1.50653 255 255 255
-0.115044 -0.194182   1.49644 255 255 255
-0.0399838  -0.170061    1.48542 255 255 255
 -0.112499 -0.0654509    1.49836 255 255 255
0.00453685   0.177891    1.50029 255 255 255
-1.45871  -1.7573  2.83337 255 255 255
-1.61796 -1.86316  2.77806 255 255 255
0.00428071   0.589269    1.65472 255 255 255
-0.242607  0.422978   1.40001 255 255 255
-1.36171 -1.78803  3.00348 255 255 255
0.0899462  0.216344   1.57092 255 255 255
0.025517 0.534526  1.85119 255 255 255
-0.156337  0.442345   1.53788 255 255 255
-0.207564  0.406836   1.51926 255 255 255
0.00830314   0.538495    1.80404 255 255 255
  0.139629 0.00101375    1.70783 255 255 255
0.140379 0.121575  1.56674 255 255 255
-0.0867953   0.436652    1.88257 255 255 255
-0.0975533   0.396258    1.86729 255 255 255
-0.0949088   0.427174    1.84436 255 255 255
-0.0945765   0.312456    1.54974 255 255 255
0.153527 0.210657  1.61024 255 255 255
-0.322958  0.407301   1.40277 255 255 255
0.0231709  0.497199   1.96344 255 255 255
-0.180459  0.487654   1.46968 255 255 255
-0.0823188   0.533679    1.52424 255 255 255
-1.79651 -1.85473  2.56981 255 255 255
0.00795046   0.156417    1.49153 255 255 255
0.167354 0.147739  1.57321 255 255 255
-0.11175 0.451114  1.44981 255 255 255
0.129789 0.263199    1.557 255 255 255
-0.181085  0.392576   1.47494 255 255 255
   0.0969205 -0.000878966      1.54572 255 255 255
-1.78133 -1.62892  2.55495 255 255 255
-0.162453  0.454009   1.52861 255 255 255
0.110961 0.222064  1.59303 255 255 255
0.0129885  0.110038   1.52292 255 255 255
0.118118 0.248736  1.60988 255 255 255
    0.21124 -0.00809717     1.72859 255 255 255
0.128331 0.272583  1.67145 255 255 255
  0.167737 -0.0597016    1.63441 255 255 255
 -0.191114 0.00120375    1.47481 255 255 255
-1.39447 -1.69492  3.16875 255 255 255
  0.155418 -0.0125582    1.68386 255 255 255
 0.0849663 -0.0503518    1.51127 255 255 255
0.857076 -1.23464  5.19649 255 255 255
 -0.217416 -0.0896384    1.50494 255 255 255
0.0746202   1.66954   4.73341 255 255 255
 -2.8685 -1.53049  6.42988 255 255 255
-0.0183138   0.495501    1.78876 255 255 255
0.160379 0.201905  1.62035 255 255 255
-0.0460388   0.456688    1.85769 255 255 255
-0.0881281  -0.230583    1.50702 255 255 255
-1.39151 -1.72275  2.95016 255 255 255
-2.95888 -1.61394   6.4301 255 255 255
-0.0241284   0.464705    1.83763 255 255 255
-0.319465  0.285101    1.5519 255 255 255
 1.00472 -1.37043  5.29365 255 255 255
-0.334648  0.327203   1.48129 255 255 255
0.679014  1.62924   4.5948 255 255 255
-3.07057  -1.9008  6.59549 255 255 255
-0.000846785     0.570613      2.19779 255 255 255
-2.74839 -1.78186  6.37637 255 255 255
0.0514135   1.75164   5.45519 255 255 255
-2.47259 -1.68571  5.99602 255 255 255
0.154043 0.171026  1.57891 255 255 255
-0.348348  0.161271   1.40517 255 255 255
 0.0603795 -0.0126573    1.51328 255 255 255
-0.167467  0.468812   1.42812 255 255 255
 0.131443 -0.196011   1.58955 255 255 255
0.100226 0.633096   1.9932 255 255 255
-1.38978 -1.72737  2.99934 255 255 255
-0.374481  0.346983   1.44985 255 255 255
-0.233597  0.448326    1.4042 255 255 255
-2.84529  -1.5915  6.39875 255 255 255
0.760505 -1.48493  5.25363 255 255 255
-0.129676   1.29833    5.7886 255 255 255
 -0.219771 -0.0771143    1.49563 255 255 255
0.0873161  0.637127   2.03281 255 255 255
0.0629559  0.608953   2.02911 255 255 255
0.431982 -1.32541  5.29788 255 255 255
-2.55657 -1.95677  6.64652 255 255 255
0.0109261    1.4583   5.69863 255 255 255
0.0120751  0.577945    1.7426 255 255 255
0.670481  1.52786  5.83565 255 255 255
0.0716052   1.23984   5.81724 255 255 255
-0.101463   0.28748   1.52894 255 255 255
0.0243314   0.56702   1.84804 255 255 255
-0.0510217   0.889044    5.92116 255 255 255
 -0.21259 -0.133935   1.51209 255 255 255
-0.277303   1.52903   5.85548 255 255 255
0.401922   1.5228  5.78209 255 255 255
-0.988651   1.37161   6.06188 255 255 255
-0.325656  0.341321   1.46718 255 255 255
0.776794  1.27497   5.6786 255 255 255
0.0904658 0.0690476   1.51501 255 255 255
-0.0394934    1.54185    5.96049 255 255 255
-2.38214 -1.58431  6.03092 255 255 255
-0.0418974   0.516761    1.74511 255 255 255
 0.15058 -1.51328  5.62263 255 255 255
0.0717614 -0.237689   1.53669 255 255 255
-0.150669  0.475223   1.46826 255 255 255
-0.0414888  -0.122483    1.47243 255 255 255
-0.0220147   0.556486    1.66633 255 255 255
0.455048 -1.75035  5.68152 255 255 255
-0.2935 0.35286  1.4756 255 255 255
  0.0857606 0.000687983      1.5281 255 255 255
  -0.16415 -0.0131157    1.49242 255 255 255
-0.0477457   0.266489    1.53239 255 255 255
-0.0394109  -0.193933    1.49941 255 255 255
 -0.10633 -0.264723   1.51738 255 255 255
0.00149685    1.77817    5.49039 255 255 255
0.422003  1.69671  4.99854 255 255 255
-0.0579467   0.456566    1.85227 255 255 255
-0.043975   0.45328   1.83543 255 255 255
0.0446165   1.07145   5.88739 255 255 255
-2.77322 -1.54802  6.41042 255 255 255
-0.269897   0.44167   1.36913 255 255 255
 -0.046907 -0.0789788     1.4808 255 255 255
-0.0164554   0.529642    1.74672 255 255 255
-0.213276   0.43986   1.41597 255 255 255
-0.105559 -0.123657   1.47739 255 255 255
-0.0530777   0.223023    1.50825 255 255 255
-0.187961 -0.180023   1.50327 255 255 255
 -0.212025 -0.0324194    1.46948 255 255 255
-0.531628   1.40938     5.947 255 255 255
-0.271222  0.405197   1.43863 255 255 255
-0.0606634   0.315309    1.55859 255 255 255
-2.43493  -1.5147  5.87408 255 255 255
-0.308184   1.59287   5.74038 255 255 255
-0.266174  0.401449   1.41997 255 255 255
-0.170026 -0.293021   1.55042 255 255 255
0.00443184   -0.22636    1.51367 255 255 255
0.0173991 -0.233724   1.62935 255 255 255
0.0226826   0.54062   1.85779 255 255 255
0.0796765  0.608247   1.90919 255 255 255
-0.284594  0.389873   1.45439 255 255 255
0.0471207  0.598018   1.87108 255 255 255
-1.37247 -1.75335  2.98533 255 255 255
-0.144144 -0.100093   1.49687 255 255 255
-0.509575   1.49833   5.88296 255 255 255
  -1.362 -1.69318  2.93225 255 255 255
-0.003403  0.565303   1.74086 255 255 255
   0.0185 -0.210919   1.53056 255 255 255
-0.346991  0.381059    1.3961 255 255 255
0.853451  -1.4204  5.23321 255 255 255
-0.0868335   0.175157    1.49312 255 255 255
-0.374594   1.40187   5.87137 255 255 255
-0.0187995    0.50526    1.76991 255 255 255
0.00321505   0.225604    1.51205 255 255 255
 0.26396 0.927263   5.7949 255 255 255
0.0180446  0.562161    2.0056 255 255 255
-0.114501  0.258633   1.52077 255 255 255
-0.901789   1.39741   5.91722 255 255 255
0.00517467  -0.129709    1.49188 255 255 255
-2.42432 -1.43788  5.88269 255 255 255
-0.0500693  -0.162862    1.48639 255 255 255
-0.00462407    0.554992      1.7323 255 255 255
-0.34949    0.402  1.37361 255 255 255
-0.00694448   -0.155244     1.48507 255 255 255
-0.0672998 -0.0571202    1.48131 255 255 255
 -0.175272 -0.0651112    1.47065 255 255 255
0.0971431  0.649443    1.9354 255 255 255
0.0589883 -0.303061   1.63069 255 255 255
-0.0614372  -0.156671    1.48021 255 255 255
-0.305056  0.405566   1.39069 255 255 255
-0.345226   1.41851   5.70072 255 255 255
-3.08039 -1.75439  6.48492 255 255 255
-0.245803  0.417644   1.44136 255 255 255
-0.288586  0.396019   1.40292 255 255 255
0.0527655 -0.303192   1.61367 255 255 255
0.0523973  0.607592   2.04863 255 255 255
  0.185183 -0.0497294    1.67374 255 255 255
-0.0833942   0.287846    1.54182 255 255 255
0.000623523     0.57025     1.70933 255 255 255
0.0320917 -0.261502   1.55617 255 255 255
-0.342597  0.345487   1.45576 255 255 255
-0.164422  0.412878   1.49681 255 255 255
-2.30334 -1.80491   2.7168 255 255 255
-2.17604 -1.81573  2.66512 255 255 255
-0.119486 -0.314504   1.91353 255 255 255
-0.191312  0.414099   1.48497 255 255 255
0.0396071  0.549149   1.84916 255 255 255
-0.144278  0.501407   1.42594 255 255 255
-0.188481 -0.407882   1.79187 255 255 255
-0.186043 -0.248599   1.53091 255 255 255
 0.109717 -0.231799   1.60144 255 255 255
0.430056 0.401108  2.46379 255 255 255
-0.0258071   0.350338    1.66561 255 255 255
-0.365574  0.289672   1.52768 255 255 255
0.742276 -1.49369  5.41459 255 255 255
-0.383207  0.351196   1.42115 255 255 255
-0.229385 0.0431277     1.519 255 255 255
-0.271079  0.436754   1.38709 255 255 255
-0.252284 -0.323994    1.6196 255 255 255
-0.335099  0.450165   1.22671 255 255 255
-0.0203822   0.607239    1.54748 255 255 255
-0.341543  0.449714   1.25676 255 255 255
-0.378199  0.329305   1.44379 255 255 255
-0.372157  0.345034   1.45537 255 255 255
-0.00902151     0.55761     1.70045 255 255 255
-0.263171  0.466807   1.32928 255 255 255
-0.337502  0.446537   1.27117 255 255 255
1.54451  1.3984 4.90292 255 255 255
-0.382781  0.444148   1.25181 255 255 255
-0.0199847   0.601056    1.58749 255 255 255
-0.397206  0.406272   1.35626 255 255 255
-0.287073  0.431013   1.32746 255 255 255
-0.413519  0.337073   1.51999 255 255 255
0.924736  1.78457  4.56943 255 255 255
-0.262602 -0.041186   1.51859 255 255 255
-0.461778 0.0788335   2.19061 255 255 255
-0.0714795   0.476928    1.65885 255 255 255
 0.109304 -0.204899   1.56117 255 255 255
-0.347178  0.410508   1.35095 255 255 255
-0.0402803   0.573115    1.57606 255 255 255
-0.390339  0.435862   1.24248 255 255 255
-0.0283916    0.57968    1.59574 255 255 255
-0.329794  0.448442   1.31092 255 255 255
-0.371957  0.361132   1.43133 255 255 255
  0.160317 -0.0219895    1.60481 255 255 255
-0.427139  0.435654   1.28099 255 255 255
-0.244445  -0.19095   1.52251 255 255 255
0.744966  -1.4389   5.2883 255 255 255
 -0.348344 -0.0561059    1.65947 255 255 255
 -0.245195 -0.0254818    1.52883 255 255 255
-0.00684635    0.584423      1.6641 255 255 255
0.0165027   0.54616   1.76717 255 255 255
-0.0681363   0.456479    1.66944 255 255 255
-0.0025546   0.518181    1.77932 255 255 255
-0.152289  0.479105   1.43699 255 255 255
-0.359455  0.407947    1.3628 255 255 255
1.40829 1.46308  4.9697 255 255 255
0.139532 0.220731  1.60172 255 255 255
-0.154727  0.513223    1.3936 255 255 255
0.0815566  0.297781   1.59615 255 255 255
0.737605 -1.36242  5.33968 255 255 255
-0.136291  0.540537   1.39566 255 255 255
-0.161996  0.403781   1.48471 255 255 255
-0.435534  0.431876   1.26338 255 255 255
-0.0893641  -0.230727    1.48568 255 255 255
-0.000234596     0.601312      1.67919 255 255 255
-0.39018 0.403173  1.36244 255 255 255
  1.3619 -1.29887  4.94637 255 255 255
-0.131966  0.527736   1.39973 255 255 255
 0.0639813 -0.0392031    1.48713 255 255 255
  0.131295 -0.0587718    1.53629 255 255 255
-0.0318896   0.588195    1.53571 255 255 255
0.0753756  0.306824   1.63925 255 255 255
-0.366699  0.401731   1.34966 255 255 255
-0.135279  -0.10366   1.48366 255 255 255
-0.434689  0.431199    1.2816 255 255 255
-0.400522  0.430489   1.25797 255 255 255
 -0.215889 -0.0817086     1.4961 255 255 255
 -0.195342 -0.0950161    1.49038 255 255 255
-0.338627  0.411841   1.31598 255 255 255
-0.27358  0.43145  1.34301 255 255 255
-0.39737 0.452138  1.23331 255 255 255
0.922824 0.989847  3.83969 255 255 255
-0.429834  0.436374   1.24357 255 255 255
-0.101507 -0.227773   1.48439 255 255 255
-0.212178  0.451807   1.44085 255 255 255
-0.399521  0.339613   1.45352 255 255 255
-0.379881  0.342607   1.46191 255 255 255
0.142421 0.232615  1.61336 255 255 255
-0.303009 -0.275968   1.66386 255 255 255
0.941632  1.83772  4.68238 255 255 255
-0.260934  -0.30546   1.60884 255 255 255
 -2.1236 -1.56121  5.79599 255 255 255
-0.31931 0.459453  1.26321 255 255 255
-0.0597744  -0.127451    1.47451 255 255 255
-0.302247  0.389146   1.43181 255 255 255
-0.374022  0.402284    1.3601 255 255 255
 -0.271846 0.00352021    1.54857 255 255 255
-0.204456  0.388071   1.47032 255 255 255
-0.383335  0.428947   1.25417 255 255 255
-0.0839502  -0.120306    1.48094 255 255 255
-0.39141 0.469392  1.23107 255 255 255
-1.33892 0.987111  6.19963 255 255 255
-0.334527  0.320062   1.49458 255 255 255
-0.43249 0.431039  1.23816 255 255 255
-0.222617 -0.212426   1.53049 255 255 255
-0.238154  0.449998   1.38444 255 255 255
-0.247108 -0.113872   1.51393 255 255 255
-0.114277 -0.217679    1.4907 255 255 255
-0.187084  0.509392   1.35778 255 255 255
-0.145207 -0.122115   1.48309 255 255 255
-0.108913  0.496263    1.5103 255 255 255
-0.260105 -0.111838   1.54038 255 255 255
-0.360099  0.400481   1.36273 255 255 255
-0.0372966  -0.150482    1.47632 255 255 255
