ply
format ascii 1.0
element vertex 1136
property float x
property float y
property float z
property uchar red
property uchar green
property uchar blue
end_header
0.147819  1.05301  6.07099 255 255 255
0.306039 0.232222  1.21502 255 255 255
-0.126265  0.439726   1.53141 255 255 255
-0.24909 0.430944  1.40468 255 255 255
-0.250394  0.378541   1.46757 255 255 255
-0.657632   2.24688   5.80253 255 255 255
0.0233752  0.175145   1.49012 255 255 255
 -0.557345 -0.0669856    1.58508 255 255 255
-0.00544009    0.129729     1.47899 255 255 255
-0.0316631 -0.0494138    1.47724 255 255 255
-0.20024 0.443709  1.43843 255 255 255
-0.0457964   0.521556    1.68716 255 255 255
-0.0564717 -0.0030186     1.4716 255 255 255
0.138274  1.43897  6.21154 255 255 255
-0.0727044   0.020657    1.47684 255 255 255
0.145116 0.247146  1.55403 255 255 255
0.0279072   1.78083   6.03374 255 255 255
0.234431 0.325694  1.51168 255 255 255
0.045181 0.581475  2.02953 255 255 255
-0.0239463 -0.0329308     1.4677 255 255 255
0.179855 -1.76378   5.9686 255 255 255
-0.174968  0.411372    1.4854 255 255 255
-0.533594   2.06923    5.9071 255 255 255
-0.477822   1.94419   5.88985 255 255 255
-0.255076  0.473813   1.31456 255 255 255
-0.0325082   0.150818    1.48154 255 255 255
-0.243683  0.409029   1.45198 255 255 255
-0.112051  0.255599   1.52007 255 255 255
-0.338906  0.384606   1.38336 255 255 255
-0.619276  0.959315   6.32482 255 255 255
0.00278323   -0.21437    1.50248 255 255 255
   0.115009 -0.00559616     1.53399 255 255 255
-1.38815  -1.6982  2.99668 255 255 255
-1.38319 -1.69278  3.10238 255 255 255
-1.56634 -1.70656  3.27626 255 255 255
-0.280899  0.390287   1.43701 255 255 255
-1.57577 -1.67456   3.2789 255 255 255
 0.101478 -0.151249   1.58992 255 255 255
  0.227316 -0.0152487    1.65111 255 255 255
-0.227181 0.0840997   1.51238 255 255 255
1.12725 1.55406 4.63627 255 255 255
 0.023921 0.0471964   1.46555 255 255 255
 1.63792 -1.66348  5.44623 255 255 255
-0.0184308 -0.0142877    1.47146 255 255 255
-0.152875 0.0626245   1.45933 255 255 255
0.00368268 -0.0943379    1.48204 255 255 255
-0.208098 -0.270164   1.58397 255 255 255
1.38466 1.41782 4.72292 255 255 255
-0.355824  0.394816   1.37127 255 255 255
0.196749 0.146426  1.62781 255 255 255
-0.0327467 -0.0439225    1.47659 255 255 255
 -0.171815 -0.0295107    1.46805 255 255 255
 -0.180626 -0.0954504    1.49103 255 255 255
 1.58424 -1.46038  5.19374 255 255 255
-0.462055  0.409568     1.383 255 255 255
-0.0178984   0.606069    1.54346 255 255 255
-0.125666  0.422893   1.51689 255 255 255
1.43259 1.55025 4.87897 255 255 255
0.155414 0.222607  1.63167 255 255 255
 0.0999492 -0.0675561    1.50481 255 255 255
1.42377 1.35605 4.64339 255 255 255
 -0.182223 -0.0163189    1.45945 255 255 255
-0.222517  0.449591   1.33873 255 255 255
-0.0529021   0.580017    1.52694 255 255 255
 1.56942 -1.43437  5.16623 255 255 255
-0.0375394   0.594634    1.52253 255 255 255
-0.0653352   0.319387    1.55671 255 255 255
0.931008  -1.3669  5.50651 255 255 255
-0.288331  0.399587   1.39344 255 255 255
0.86045 1.86417   4.711 255 255 255
-0.0226738 -0.0289322    1.47508 255 255 255
-0.241304  0.340485   1.48142 255 255 255
-0.196957  0.360894    1.4844 255 255 255
-0.172393 0.0816092   1.51176 255 255 255
 0.176222 0.0989169   1.54238 255 255 255
0.0354344  0.573574   1.77001 255 255 255
-0.354477  0.414715   1.41978 255 255 255
 1.4771 1.40416 4.46901 255 255 255
 -0.272549 -0.0501728    1.53036 255 255 255
-0.206692 -0.172521   1.50092 255 255 255
-0.228859 -0.196462   1.52113 255 255 255
 1.38422 -1.72018  5.23382 255 255 255
 -0.21549 -0.193302   1.49594 255 255 255
-2.10104 -2.02739  6.78295 255 255 255
-0.280961  0.420607   1.39157 255 255 255
1.51132 1.37447 4.57118 255 255 255
 1.65574 -1.55468  5.16936 255 255 255
-0.247574  0.350458   1.47342 255 255 255
-0.255724  0.355948   1.46991 255 255 255
0.781544 -1.76337  5.59447 255 255 255
-0.0163412  -0.106878    1.46193 255 255 255
-0.181364 -0.231716   1.50354 255 255 255
-0.337919  0.409799   1.36572 255 255 255
-0.110474 -0.190351   1.47876 255 255 255
-0.246442 -0.017704   1.52128 255 255 255
-0.170638 -0.231955   1.50017 255 255 255
-0.0693073   0.174943    1.48975 255 255 255
0.830061 -1.56515  5.61807 255 255 255
-0.217579 -0.181931   1.51956 255 255 255
0.460793 -1.90147  5.82521 255 255 255
-0.161336 -0.112436   1.46863 255 255 255
0.977264 -1.38241  5.44738 255 255 255
0.665406   1.4164  5.97582 255 255 255
1.69078 1.40185 4.96873 255 255 255
0.119059 0.267803  1.55995 255 255 255
-0.0558749 -0.0574329    1.47598 255 255 255
-0.321771  0.379509   1.40998 255 255 255
1.33677 1.44399 4.68263 255 255 255
-0.207486 -0.155029   1.49882 255 255 255
  0.121254 -0.0602495    1.51869 255 255 255
-0.148379  0.469547   1.45212 255 255 255
-0.347804  0.328579   1.50446 255 255 255
0.110874 0.181266  1.54089 255 255 255
-0.152058  0.453763   1.48324 255 255 255
0.177393 0.271689  1.52443 255 255 255
 -0.12805 0.0551362   1.47899 255 255 255
-0.0815146  -0.101199    1.47836 255 255 255
-0.0497195  -0.154783    1.47294 255 255 255
-0.0582827 0.00289775    1.46548 255 255 255
-0.215552 -0.149032   1.50571 255 255 255
-2.10629 -1.78521  6.66973 255 255 255
-0.0597196   0.593306    1.47089 255 255 255
1.08907 1.28779  5.8911 255 255 255
-2.02309  -1.6411   6.6001 255 255 255
-0.0758473   0.277223    1.51091 255 255 255
-0.193223  0.374879   1.48258 255 255 255
1.22011  1.3741 5.99772 255 255 255
  1.546 1.48772 5.56178 255 255 255
-0.226613  0.436081   1.41836 255 255 255
-0.0702601  0.0294936    1.47139 255 255 255
-2.02993 -1.69602  6.63223 255 255 255
  -0.0441137 -0.000364406      1.46303 255 255 255
-0.223716 -0.247777   1.53887 255 255 255
-1.12306 0.814502   6.5774 255 255 255
-0.149296  0.479436   1.44302 255 255 255
-0.113818 -0.111555   1.47797 255 255 255
1.03024 -1.4147 5.59195 255 255 255
-0.134392 -0.204001   1.48531 255 255 255
0.964518  1.53345  5.88079 255 255 255
-0.0426621   0.100038    1.47674 255 255 255
  1.0748 0.982129  3.85391 255 255 255
  1.4651 -1.43912   5.2392 255 255 255
-0.160304  0.424409   1.49317 255 255 255
-0.277766  0.426383    1.3886 255 255 255
-0.331569  0.397082   1.37984 255 255 255
-0.172687 -0.176148   1.49042 255 255 255
-0.101227  0.266533    1.5204 255 255 255
-0.118739 -0.144333   1.47545 255 255 255
 1.5111 -1.4079 5.20471 255 255 255
-0.126996   0.54432   1.40018 255 255 255
-0.00274437    0.168202      1.4887 255 255 255
0.311529 -1.79418  5.92284 255 255 255
0.154701 0.123069  1.55406 255 255 255
-0.078625 -0.089051   1.47875 255 255 255
-0.0786423 -0.0888923    1.47877 255 255 255
 -0.037103 -0.0257735    1.47293 255 255 255
-0.171353 -0.145184   1.48475 255 255 255
-0.171907 -0.145563   1.48483 255 255 255
 0.142505 0.0559499   1.58191 255 255 255
0.0304734  0.139697   1.48304 255 255 255
-0.0454161   0.606886    1.48417 255 255 255
-0.233805 -0.202955   1.51372 255 255 255
-0.251253  0.431817   1.38859 255 255 255
-0.203498 -0.244178   1.51504 255 255 255
-0.0382119  -0.220066    1.48845 255 255 255
-0.042658  0.155662   1.48295 255 255 255
 -0.126736 -0.0987966    1.47302 255 255 255
  -0.1469 -0.123666   1.47656 255 255 255
1.34241 1.38898   4.804 255 255 255
-0.114833  0.528209   1.44891 255 255 255
-0.0796027  -0.120684    1.47267 255 255 255
1.53878 1.46132 5.13859 255 255 255
-0.403032  0.391546   1.39681 255 255 255
1.19237 1.21443 5.96348 255 255 255
0.416608 0.577653  2.55613 255 255 255
-0.200604 -0.173598   1.49235 255 255 255
1.12935 1.33653 5.99319 255 255 255
0.0511021  0.259174   1.53737 255 255 255
1.66545 1.36335 5.01062 255 255 255
-0.0739074   0.237231    1.51711 255 255 255
0.385979 -1.97849   5.8727 255 255 255
0.0095685   0.28364   1.51288 255 255 255
 1.00138 -1.42951  5.45366 255 255 255
-0.0964704   0.260857     1.5228 255 255 255
-0.354104  0.404401   1.30681 255 255 255
-0.397105  0.401399   1.41017 255 255 255
 0.33444 -2.03713  6.20884 255 255 255
-0.340067  0.426982   1.29295 255 255 255
-0.0311748  0.0701002    1.46284 255 255 255
 1.48635 -1.49635  5.29787 255 255 255
-0.196021 -0.145742   1.50459 255 255 255
0.0375147 -0.215321   1.50929 255 255 255
 -1.9946 -1.83856  6.68531 255 255 255
0.437176  -1.9825  5.89876 255 255 255
-0.151427  0.512097   1.39665 255 255 255
-0.159022 -0.122836   1.45978 255 255 255
-0.451007  0.408372   1.39658 255 255 255
-0.0377606 -0.0193015       1.47 255 255 255
-1.95982 -1.69199  6.72172 255 255 255
0.0772904 -0.177342   1.51876 255 255 255
 1.61668 -1.33442   5.1796 255 255 255
 0.90172 -1.50662  5.50449 255 255 255
-0.282468  0.425179   1.38272 255 255 255
-0.343775  0.404631   1.30988 255 255 255
-0.0532611   0.201783    1.49905 255 255 255
0.561108 -1.94188  6.00166 255 255 255
-0.196758  0.402341   1.47736 255 255 255
-0.0864613   0.164177    1.48688 255 255 255
1.07222 1.58795 4.89451 255 255 255
-0.0542502     0.1146    1.47911 255 255 255
1.09545 1.03027 3.78745 255 255 255
1.69036 1.41366 4.90122 255 255 255
-0.163725 -0.201833   1.49732 255 255 255
-0.0608532   0.561216    1.52298 255 255 255
0.512151 -1.93099  5.91744 255 255 255
0.769429  1.67768   5.8658 255 255 255
0.97549 1.88811 4.67017 255 255 255
-0.116635  0.161325   1.48545 255 255 255
-0.00790964    0.161433     1.48743 255 255 255
-0.206348  0.446582   1.41571 255 255 255
0.929017 -1.65079  5.44096 255 255 255
-0.334852  0.364066   1.42478 255 255 255
-0.00997953    0.169556     1.49151 255 255 255
-0.0671483   0.507945    1.56958 255 255 255
-0.251924  0.466382   1.33105 255 255 255
-0.269504  0.470748    1.3233 255 255 255
-0.239887 -0.061279   1.51276 255 255 255
0.952132  1.50237  5.88595 255 255 255
1.39002 -1.4431 5.15412 255 255 255
 1.60948 -1.53645  5.08894 255 255 255
1.18819 1.24622 5.97811 255 255 255
-0.101754 -0.255893   1.50613 255 255 255
-0.135751 -0.126655   1.47275 255 255 255
-2.26981 -1.78689  6.13933 255 255 255
-0.348235  0.420117    1.3092 255 255 255
-0.28952 0.460466  1.31671 255 255 255
0.943053 -1.54185  5.46467 255 255 255
1.53739 1.34391 4.89421 255 255 255
-0.258128  0.485015   1.32653 255 255 255
-0.184156 -0.249298   1.52376 255 255 255
-0.107976  0.124069   1.48888 255 255 255
-0.269808  0.385081   1.45275 255 255 255
 -2.1708 -1.66241  6.72413 255 255 255
-0.076543 0.0778025   1.47622 255 255 255
-0.253751   0.40992   1.41914 255 255 255
0.817978 -1.49853  5.50311 255 255 255
-0.247058 -0.227618   1.54025 255 255 255
-0.039658 -0.150696   1.47315 255 255 255
 -0.18019 -0.265056   1.67138 255 255 255
-0.0386776  0.0912113    1.49188 255 255 255
-1.53224  -1.7902  3.03097 255 255 255
-0.0827632   0.456765    1.74177 255 255 255
0.0737381  0.711117   1.67067 255 255 255
-0.273357  0.398405   1.42381 255 255 255
-0.195515  0.449374   1.41649 255 255 255
0.107994 -1.51988  6.11106 255 255 255
0.196626  0.11187  1.57805 255 255 255
  0.111212 -0.0518891    1.51195 255 255 255
-0.0668535   0.560666     1.5168 255 255 255
0.0163662  0.611109   1.65613 255 255 255
-0.910826  0.774421   6.39907 255 255 255
-0.0147132   0.549944    1.64079 255 255 255
-0.19981 0.407955   1.4734 255 255 255
-0.151247  -1.36025   5.71241 255 255 255
-1.18005 0.767022  6.46785 255 255 255
-0.169085  0.471261   1.41693 255 255 255
0.00627005   0.581267    1.63515 255 255 255
0.0747584  0.663827   1.81896 255 255 255
-0.0687522   0.573531    1.47063 255 255 255
-0.195821  0.499406   1.33457 255 255 255
-0.174685  0.419824   1.48214 255 255 255
-0.127342 0.0738834   1.49023 255 255 255
-0.344963  0.358368   1.43482 255 255 255
-0.140839   0.53621   1.38414 255 255 255
-0.00587137     0.65221     1.54003 255 255 255
-0.772796   0.75876   6.35378 255 255 255
 -0.134458 -0.0124285    1.49264 255 255 255
0.120613 0.169211   1.5272 255 255 255
0.0597718   0.61038   1.80283 255 255 255
0.0653177  0.606772   1.78888 255 255 255
-0.174355   1.56659   5.99949 255 255 255
-0.189003  0.485178   1.34862 255 255 255
-0.134595  0.548784   1.35944 255 255 255
-0.267548  0.335896    1.4781 255 255 255
-0.050384  0.472542   1.96186 255 255 255
-0.170254  0.511885   1.36312 255 255 255
-0.462944   1.37241   6.07349 255 255 255
0.0382935  0.561639   2.01838 255 255 255
-0.00412038    0.474373     1.80368 255 255 255
-0.256997  0.412252   1.40632 255 255 255
0.00382013   0.634883    1.55318 255 255 255
-0.189209  0.522065   1.33101 255 255 255
 -0.10113 -0.206897   1.49624 255 255 255
 0.104608 0.0104833   1.54244 255 255 255
-0.243836   1.40915   6.06169 255 255 255
-0.00554766    0.657196       1.529 255 255 255
-0.231961  0.430745   1.38961 255 255 255
-0.608126  0.829219   6.46893 255 255 255
-0.657426   1.49586   6.35348 255 255 255
-0.030031   1.59155   6.19835 255 255 255
-0.00303725    0.517388     1.71744 255 255 255
-0.261613  0.442923   1.34989 255 255 255
-0.0387882    1.16094    6.08534 255 255 255
-0.152618  0.517669   1.38066 255 255 255
-0.290057  0.920669   6.21467 255 255 255
-0.265964  0.651751   5.36062 255 255 255
 0.130265 -0.252938   1.70601 255 255 255
-0.0348252  -0.194236    1.49195 255 255 255
-0.0540416    0.60709    1.45787 255 255 255
-0.327755 0.0925865   4.90909 255 255 255
0.068456 0.591112  1.91926 255 255 255
0.186645 0.120913  1.59859 255 255 255
-0.155982    0.4833    1.3939 255 255 255
  0.108999 0.00191145    1.52346 255 255 255
0.0148479    0.5658   1.69999 255 255 255
 -0.070926 -0.0386369    1.48696 255 255 255
-0.527395   1.48074   6.45691 255 255 255
  0.132003 -0.0622251    1.54091 255 255 255
0.00708112    0.59925    1.65144 255 255 255
0.135122 0.213677  1.56918 255 255 255
0.297042 -1.69305  5.81266 255 255 255
-1.44706 -1.83306  3.00206 255 255 255
-0.165765  0.476897   1.37776 255 255 255
0.0023265   0.54641   1.67525 255 255 255
-0.130663  0.494516   1.44745 255 255 255
0.0299188  0.853813   2.31785 255 255 255
0.0204259  0.526574   1.85498 255 255 255
-0.0845639   0.557934    1.47827 255 255 255
-0.269715  0.459751   1.31868 255 255 255
-1.52113  -1.7629  2.98727 255 255 255
-0.18666 0.502423  1.34369 255 255 255
-0.119982  0.490044   1.49059 255 255 255
0.144197 0.641011   5.0367 255 255 255
-0.0871379   0.496747    1.55255 255 255 255
-0.0924955   0.498227    1.56343 255 255 255
 -0.142536 0.00371256    1.47545 255 255 255
-0.0897402  -0.104999    1.48071 255 255 255
0.0315814  0.537091   1.78355 255 255 255
-0.0416173   0.602704    1.50097 255 255 255
-0.185607   1.44921   6.18753 255 255 255
-0.0491267   0.561889    1.53356 255 255 255
-0.190435  0.516732   1.33261 255 255 255
-0.0498334    0.61083    1.46483 255 255 255
-0.0548678   0.582339    1.49821 255 255 255
0.00156679   0.584809    1.63309 255 255 255
-0.0687407   0.263832    1.53216 255 255 255
-0.01452 0.630508  1.54348 255 255 255
-0.126188  0.432202    1.5105 255 255 255
-0.071872  0.568197   1.47392 255 255 255
-0.0475615   0.617255    1.46657 255 255 255
-0.194839  0.380812   1.47947 255 255 255
-1.43897   -1.888  3.03571 255 255 255
-0.291988  0.427023   1.37677 255 255 255
-0.114674  0.525225   1.45124 255 255 255
   -0.13856 -0.00661541     1.47698 255 255 255
-0.159617 -0.195211   1.50149 255 255 255
-0.0962165    0.52541    1.48675 255 255 255
-0.0480219    0.56751    1.54625 255 255 255
-0.225677  0.295032   1.49511 255 255 255
-0.0560927   0.590583    1.48737 255 255 255
-0.0469336   0.601761    1.49185 255 255 255
0.188582 0.165531  1.62249 255 255 255
  0.111387 -0.0631839    1.50349 255 255 255
0.0283328  0.291362   1.54435 255 255 255
0.00105204   0.548525    1.71016 255 255 255
-0.00281442      1.1541     6.24556 255 255 255
-0.0454299   0.598861    1.49817 255 255 255
-0.615724   0.95781   6.28769 255 255 255
-0.474324   1.64468   6.05381 255 255 255
-0.00566339    0.641711     1.54399 255 255 255
-0.194805  0.397681   1.47892 255 255 255
-1.47986 -1.79284  2.95322 255 255 255
0.0790598  0.623656   1.79846 255 255 255
-1.58072 -1.63867  3.11574 255 255 255
0.206577 0.696794  2.85231 255 255 255
-0.280511  0.428045    1.3644 255 255 255
0.0527689  0.577642   2.02664 255 255 255
-0.0952813   0.546663    1.45489 255 255 255
-0.0302585    0.60035    1.53472 255 255 255
-0.256308  0.463437   1.32547 255 255 255
-0.0750457   0.203726    1.49974 255 255 255
-0.891723   0.75066   6.65401 255 255 255
-0.0593067   0.479146    1.68754 255 255 255
0.230904 -1.50705  5.79093 255 255 255
-0.0668079 -0.0310117    1.47973 255 255 255
-0.0296687   0.503319    1.74725 255 255 255
-0.00343666    0.161391     1.47878 255 255 255
 -0.117888 -0.0942993    1.48273 255 255 255
-0.338341   0.91909   6.39949 255 255 255
0.0335456  0.214513   1.51001 255 255 255
-0.33586 0.398161  1.38373 255 255 255
-0.258058  0.402938   1.41639 255 255 255
 0.100498 0.0918249   1.52441 255 255 255
-0.0529761   0.100611    1.48036 255 255 255
-0.231826  0.292636   1.47009 255 255 255
  -0.16139 -0.0455216    1.46281 255 255 255
0.131188 0.157462  1.57043 255 255 255
-0.0880765   0.362967    1.57989 255 255 255
-0.221701 -0.339318   1.70965 255 255 255
-0.416489  0.443926    1.2464 255 255 255
-0.141243  0.392963   1.50854 255 255 255
-0.208391  0.497474   1.25121 255 255 255
0.925432  1.01252  3.00786 255 255 255
-0.108033  0.466487   1.51214 255 255 255
-0.29293 0.486067  1.21565 255 255 255
-0.412657  0.404323   1.35352 255 255 255
-0.307461  0.451821   1.30431 255 255 255
-0.269867  0.419829   1.38781 255 255 255
-0.298782  0.350909   1.46121 255 255 255
-0.395849  0.393349   1.37855 255 255 255
-0.312747  0.451649   1.25282 255 255 255
-0.331197  0.378727   1.44995 255 255 255
-0.395977  0.366049   1.37659 255 255 255
-0.147832 0.0176645   1.47067 255 255 255
-0.413043  0.412044   1.29525 255 255 255
-0.0706074   0.309375    1.54921 255 255 255
-0.238873  0.485091   1.30081 255 255 255
-0.360963 0.0361328   1.75655 255 255 255
1.07379 1.06477 3.55525 255 255 255
-0.208804  0.468694   1.28059 255 255 255
-0.453959  0.421523   1.28869 255 255 255
-0.451685  0.419453   1.34836 255 255 255
-0.44651 0.480614   1.2001 255 255 255
-0.25674 0.498999  1.24664 255 255 255
-0.352804  0.341039   1.47628 255 255 255
-0.353436  0.342982   1.48475 255 255 255
0.947249  1.07012  2.97814 255 255 255
1.17881 1.09449 3.61238 255 255 255
-0.466601  0.470805   1.20262 255 255 255
-0.427081  0.445261   1.22823 255 255 255
-0.316531  0.493703   1.21731 255 255 255
-0.425703  0.406096   1.32737 255 255 255
-0.410001  0.431411   1.42964 255 255 255
-0.934598  0.563241   4.74835 255 255 255
-0.261086   0.47447   1.29825 255 255 255
-0.38476 0.402898  1.30005 255 255 255
-0.420294  0.470933   1.21326 255 255 255
-0.380875  0.349472   1.42327 255 255 255
-0.117151 0.0598873    1.4852 255 255 255
-0.317605  0.480501    1.2256 255 255 255
-0.435417  0.475895   1.20829 255 255 255
-0.423566  0.408457   1.41575 255 255 255
-0.708306  0.259323   8.45958 255 255 255
-0.356385  0.439754    1.3035 255 255 255
-0.455743  0.404685   1.35774 255 255 255
-0.144014  0.468201   1.45589 255 255 255
-0.412069  0.344543   1.43069 255 255 255
-0.0135041  -0.047758    1.47818 255 255 255
-0.395612  0.426952   1.28188 255 255 255
-0.222421  0.440128   1.31594 255 255 255
-0.289047 -0.306913    1.6863 255 255 255
-0.355419  0.385239   1.42977 255 255 255
0.917941  1.12852  3.03349 255 255 255
-0.358436  0.468829   1.21986 255 255 255
-0.379749  0.400216   1.42896 255 255 255
-0.46414 0.455243  1.22232 255 255 255
-0.259741  0.462267   1.32391 255 255 255
 -0.182523 -0.0159223    1.46319 255 255 255
-0.44063 0.448423  1.22593 255 255 255
-0.419911   0.36665    1.4588 255 255 255
-0.395479  0.436429   1.22405 255 255 255
 -0.274976 -0.0510613    1.54974 255 255 255
  -0.235524 -0.00907792     1.51495 255 255 255
-0.376106   0.36087   1.40198 255 255 255
-0.471364  0.456079    1.2094 255 255 255
0.929423 0.965774  3.67579 255 255 255
-0.327942  0.470359   1.26497 255 255 255
-0.401612  0.464831   1.21872 255 255 255
-0.419595  0.433531   1.22815 255 255 255
-0.372544 -0.137996   1.77199 255 255 255
-0.358848  0.444658   1.21971 255 255 255
-0.23871 0.391106   1.4502 255 255 255
-0.374867  0.480304   1.20894 255 255 255
  -0.19636 -0.0817826    1.46905 255 255 255
-0.357383  0.441681   1.25024 255 255 255
-0.364258  0.487643   1.20606 255 255 255
-0.443837  0.434744   1.24638 255 255 255
5.61778e-05    0.572807     1.66996 255 255 255
-0.0648643   -0.17432    1.47656 255 255 255
-0.380969  0.441215    1.2325 255 255 255
-0.399286  0.369856   1.46168 255 255 255
-0.312973  0.294446   1.53715 255 255 255
-1.97229  -1.5293  6.87881 255 255 255
-0.324499  0.350743   1.46836 255 255 255
-0.445929  0.367223    1.7257 255 255 255
-0.324305  0.350611   1.46838 255 255 255
-0.361731  0.465519   1.23359 255 255 255
-0.049248  0.503886   1.60467 255 255 255
-0.490539  0.448802   1.26577 255 255 255
  0.117392 -0.0067657     1.5262 255 255 255
-0.441683  0.414348   1.31483 255 255 255
-0.447467    0.4019   1.41233 255 255 255
-0.373771  0.369231   1.47108 255 255 255
-0.37134 0.382464  1.40046 255 255 255
0.0375038  0.655116   1.57623 255 255 255
-0.340835   0.45305   1.22465 255 255 255
-0.169726  0.018122    1.4871 255 255 255
-0.0315465   0.503814    1.77817 255 255 255
-0.454544  0.433458   1.25786 255 255 255
-0.381941  0.459671   1.22434 255 255 255
-0.0959772  -0.201068    1.47019 255 255 255
-0.422807  0.453676   1.22526 255 255 255
-0.441917  0.429277   1.27241 255 255 255
1.08289 -1.8249   5.722 255 255 255
-0.407141  0.429464   1.28124 255 255 255
-0.160158  0.471986   1.45473 255 255 255
-0.360173  0.432102   1.29172 255 255 255
-0.434444  0.432397   1.27307 255 255 255
-1.57337 0.798159  6.97877 255 255 255
-0.413292  0.456978   1.21975 255 255 255
-0.417116  0.426148   1.28559 255 255 255
1.27085 1.02819 3.65973 255 255 255
-0.453029  0.428269   1.27988 255 255 255
-0.0467526   0.499851    1.66931 255 255 255
-0.0514192   0.301456    1.52033 255 255 255
-0.458953  0.431646   1.27503 255 255 255
0.0243694  0.588951   1.74948 255 255 255
-0.479332  0.439439   1.26189 255 255 255
-0.135467 -0.186195   1.48742 255 255 255
-2.04168 -1.91161  6.72723 255 255 255
-0.361616  0.449718   1.25285 255 255 255
 -0.195981 -0.0805877    1.47822 255 255 255
-0.285149  0.454202   1.32018 255 255 255
-0.429254  0.432837    1.2335 255 255 255
-0.396496  0.425799   1.31298 255 255 255
 -0.179548 -0.0880319    1.47946 255 255 255
-0.350993  0.413635   1.32984 255 255 255
  0.158616 -0.0152085    1.60988 255 255 255
-0.111303  0.283978   1.49063 255 255 255
 0.046648 -0.150579   1.49712 255 255 255
-0.363371  0.473378   1.21316 255 255 255
-0.249536  0.374429   1.46093 255 255 255
-0.240542  0.334448   1.49286 255 255 255
-0.252225 -0.338375   1.67212 255 255 255
-0.382012  0.430247    1.2462 255 255 255
0.929163  1.03759  3.39049 255 255 255
-0.362934  0.350844   1.45956 255 255 255
1.01136 1.20693 3.25644 255 255 255
1.12876 1.03585 3.80589 255 255 255
-0.377987  0.401655   1.30273 255 255 255
-0.388833  0.344844   1.47642 255 255 255
-1.10192 0.986398  6.46945 255 255 255
-0.498817  0.445288   1.25607 255 255 255
-0.405736   0.39586   1.38213 255 255 255
-0.315901   0.15251   1.70522 255 255 255
-0.304546  0.387146   1.39555 255 255 255
 -0.140184 -0.0756213    1.45224 255 255 255
-0.367994  0.439632   1.33939 255 255 255
-1.18863 0.980172   6.4509 255 255 255
-0.445972  0.449207   1.22017 255 255 255
-0.200886 -0.130831   1.49568 255 255 255
1.04354 1.00474 3.49358 255 255 255
-1.56503  1.36189  6.82285 255 255 255
-1.89852  0.99628  6.95487 255 255 255
-0.472884  0.439558   1.24654 255 255 255
-0.398588  0.411894    1.2998 255 255 255
-0.375032  0.433576   1.34775 255 255 255
-0.192361 -0.212903   1.50475 255 255 255
0.922539  1.06798  3.09453 255 255 255
-0.0900896    0.47273     1.5621 255 255 255
-0.218205 -0.181602   1.51481 255 255 255
0.189708 0.266454  1.71253 255 255 255
-0.206789  0.511921   1.26827 255 255 255
  0.148771 -0.0306472    1.57935 255 255 255
-0.368979  0.475307   1.21417 255 255 255
-0.0588332  -0.159122    1.47912 255 255 255
-0.189946  0.527796   1.26205 255 255 255
-0.0682719   0.210115    1.48726 255 255 255
1.09678 1.04457 3.52647 255 255 255
-0.396076   0.38348   1.38549 255 255 255
-0.0843466 -0.0463975    1.48239 255 255 255
-0.415024  0.395795   1.40399 255 255 255
 0.118276 -0.193286   1.55172 255 255 255
-0.268751  0.113083   1.58347 255 255 255
-0.0421735   0.100995    1.47441 255 255 255
-0.365488  0.376319   1.45177 255 255 255
-0.174199 -0.130228   1.47881 255 255 255
-0.284614  0.398484   1.43533 255 255 255
-0.324719  0.440264   1.31397 255 255 255
-0.411458  0.334988   1.59946 255 255 255
0.0775118 -0.229081   1.54649 255 255 255
-0.324964  0.148371   1.72901 255 255 255
0.132315 0.276984  1.57904 255 255 255
-0.225802 -0.168716   1.50342 255 255 255
-0.167206  0.475151   1.44841 255 255 255
-0.299918    0.4087   1.39404 255 255 255
-0.181315   0.41128   1.48526 255 255 255
-0.452364  0.440876   1.21926 255 255 255
-0.338281  0.405108   1.32477 255 255 255
-1.56901  1.34437  7.42353 255 255 255
-0.225678  -0.14538   1.49851 255 255 255
1.00634  1.2622  3.2057 255 255 255
-0.468712  0.443408   1.25449 255 255 255
-0.445944  0.415593   1.40421 255 255 255
-0.224346 -0.247154   1.53735 255 255 255
  0.187347 -0.0341652    1.62587 255 255 255
0.113942   -0.206  1.56515 255 255 255
-0.29823 0.429521  1.38243 255 255 255
-0.470251  0.447784   1.23127 255 255 255
-0.0797381   0.536204    1.44698 255 255 255
-0.158051  0.503045   1.38236 255 255 255
-0.448085  0.452975   1.21752 255 255 255
-0.166747 -0.257639   1.51129 255 255 255
-0.0388371   0.553353    1.55864 255 255 255
-0.131469 0.0853316   1.48471 255 255 255
   -1.656 0.0840108   5.46349 255 255 255
1.22251 0.98686 3.63924 255 255 255
-0.465042   0.43517   1.24819 255 255 255
-0.407678  0.454368   1.23039 255 255 255
1.08768  1.0786  3.5351 255 255 255
  0.186967 -0.0444417    1.61264 255 255 255
1.51414 1.49484 5.45191 255 255 255
-0.17423 0.386344  1.49205 255 255 255
-0.357644   0.44365   1.35013 255 255 255
0.993367  1.26037  3.22304 255 255 255
-0.267898 -0.103889   1.53275 255 255 255
-0.172985  0.454926   1.45346 255 255 255
-0.171597  0.458054   1.48138 255 255 255
-0.34558 0.440284  1.27549 255 255 255
-0.0678263  0.0405449    1.47403 255 255 255
-0.00696244    0.193039     1.50836 255 255 255
-0.0943597  -0.186099    1.46901 255 255 255
-0.178582  0.448713   1.47339 255 255 255
-0.50391 0.444081  1.27202 255 255 255
-0.206437 -0.152963   1.47633 255 255 255
-0.0367064   0.284446    1.51414 255 255 255
0.034903 0.237163  1.51676 255 255 255
  0.188367 -0.0426038    1.63866 255 255 255
-0.142591  0.464674   1.47453 255 255 255
 -0.152572 -0.0854883    1.47342 255 255 255
-0.457481  0.449631   1.22067 255 255 255
-1.65822  1.70802  7.30263 255 255 255
  0.0963121 -0.00404318     1.53331 255 255 255
-0.255429 0.0255371   1.52549 255 255 255
-0.261595 -0.144598   1.51909 255 255 255
-0.357611  0.320681   1.51672 255 255 255
-0.339216  0.437868    1.2923 255 255 255
-0.0519887  -0.125604    1.46265 255 255 255
-0.205236  0.491781   1.30915 255 255 255
-0.189548 -0.108374   1.49528 255 255 255
 -1.25673 0.0352873   5.34839 255 255 255
-0.0563507  -0.128796    1.47183 255 255 255
-0.438083  0.436755   1.35249 255 255 255
-0.196244  0.439424   1.46047 255 255 255
-0.0471636   0.179417    1.48816 255 255 255
-0.0332242  -0.159903    1.46755 255 255 255
-0.119929  0.436448   1.49199 255 255 255
-0.305996  0.337577   1.45879 255 255 255
-0.250901 -0.117925   1.51198 255 255 255
 1.05594 0.988776  3.41948 255 255 255
-0.272776   0.40326   1.43494 255 255 255
-0.47998 0.432877  1.28023 255 255 255
-0.408807   0.39589   1.36369 255 255 255
-1.01773  0.68243  4.68036 255 255 255
1.21544 1.08059 3.70109 255 255 255
-0.341757  0.441159   1.28518 255 255 255
-0.413572  0.394267   1.39996 255 255 255
-0.406412  0.384886   1.39657 255 255 255
 0.14842 0.122334  1.54067 255 255 255
-0.233385  0.442604   1.43675 255 255 255
0.0658572  0.250502   1.53768 255 255 255
-1.21629  0.88395  4.59178 255 255 255
-0.0276475   0.351541    1.61128 255 255 255
-0.401896  0.453854   1.22656 255 255 255
-0.253394  0.416056   1.39616 255 255 255
 -0.209604 -0.0461755    1.46069 255 255 255
-0.352555   0.41835   1.30735 255 255 255
-0.00665855    0.216437     1.48353 255 255 255
-0.254939  0.431614   1.33067 255 255 255
-0.980308 0.0252243   5.42905 255 255 255
-0.622217 0.0252127   5.50239 255 255 255
-0.378924  0.419667   1.30845 255 255 255
   0.148691 -0.00326741     1.60538 255 255 255
-0.459949  0.474437   1.20374 255 255 255
-0.237182  0.415206   1.40322 255 255 255
-0.159287 -0.166595   1.50187 255 255 255
-0.16309 0.500012  1.37866 255 255 255
-0.222616  0.509482   1.25802 255 255 255
0.0153747  0.105694   1.47862 255 255 255
-0.255817 0.0571704   1.53731 255 255 255
0.0169534 -0.137043    1.4828 255 255 255
-0.970583 0.0263755   3.93307 255 255 255
0.0070051  0.278924   1.53721 255 255 255
-0.351919  0.432997   1.27629 255 255 255
-0.0584267  0.0439585    1.46831 255 255 255
-0.261612  0.120347   1.55928 255 255 255
-0.397693  0.452901   1.22704 255 255 255
-0.389714  0.293812   1.62787 255 255 255
-0.265236  0.458733   1.36781 255 255 255
-0.195258 -0.234771   1.51895 255 255 255
-1.75069 0.116589  5.62886 255 255 255
-0.344901  0.416711   1.31073 255 255 255
0.93132 1.07662 3.07687 255 255 255
-0.192588 -0.138564   1.51853 255 255 255
0.186972 -1.21097  3.96706 255 255 255
 -1.09353 0.0245362    5.2846 255 255 255
-0.0563894   0.488314    1.69876 255 255 255
 -0.209748 -0.0994688    1.50251 255 255 255
-0.101223  0.169823   1.49419 255 255 255
-0.0162033   0.279949    1.53563 255 255 255
-0.0301999   0.586126    1.53491 255 255 255
-0.433848  0.404085   1.37016 255 255 255
-0.0622329 -0.0352995    1.47403 255 255 255
-0.187536 -0.216821   1.50019 255 255 255
-0.317279  0.344625   1.45909 255 255 255
-0.380724  0.423352   1.36929 255 255 255
 -1.10326 0.0556875   5.19834 255 255 255
0.902453 -1.15239  4.07071 255 255 255
0.0199577  0.264814    1.5282 255 255 255
0.0181247  0.190022   1.48818 255 255 255
 0.147079 -0.196164   1.62652 255 255 255
0.931285  1.04454  3.71404 255 255 255
-0.0659582   0.258787    1.62511 255 255 255
0.123172 -0.13577  1.61491 255 255 255
 0.091142 0.0619638   1.52674 255 255 255
 -0.212239 -0.0451608    1.53834 255 255 255
-0.181297  0.410042   1.47147 255 255 255
-0.0597892   0.168826    1.44255 255 255 255
-0.0463386  0.0591868    1.44265 255 255 255
0.136879 0.262641  1.62268 255 255 255
  0.136917 0.00689288    1.61714 255 255 255
-0.144116 0.0606132   1.46334 255 255 255
0.167473 0.151457  1.63126 255 255 255
-0.198132  0.468692   1.39881 255 255 255
-0.0485274   0.521179    1.61791 255 255 255
0.221113 0.101374  1.60336 255 255 255
0.0396553  0.554554   1.81822 255 255 255
  0.167581 -0.0569045    1.56115 255 255 255
 -0.246506 -0.0207316    4.83349 255 255 255
-0.191981 -0.255644   1.52528 255 255 255
-0.0288741   0.551419     1.5676 255 255 255
0.195771 0.110783  1.58327 255 255 255
-1.42072 -1.78594  2.91838 255 255 255
  0.170207 -0.0337065    1.70465 255 255 255
-0.132971   -1.3126   5.62139 255 255 255
-0.10227 0.467075  1.53745 255 255 255
  0.165567 -0.0168559    1.72024 255 255 255
0.000362124    0.567683     1.65895 255 255 255
-0.171425  0.074483   1.51695 255 255 255
-0.189524  0.461585   1.41774 255 255 255
0.129028 0.162582  1.53366 255 255 255
-0.0110065   0.341111    1.70486 255 255 255
-0.210835  0.728095   5.28614 255 255 255
   0.142398 -0.00239074     1.78563 255 255 255
0.00648024   0.529418    1.71708 255 255 255
-0.0866189  -0.176086    1.48613 255 255 255
-0.00340705     0.57952     1.62137 255 255 255
0.162074 0.190619  1.59106 255 255 255
 0.13925 0.284371  1.63788 255 255 255
-1.36792 -1.71748  3.08231 255 255 255
-1.38805 -1.72288  3.16173 255 255 255
 0.120555 -0.268661    1.7109 255 255 255
0.0271763  0.548256   1.82321 255 255 255
-0.226909   0.43244   1.44002 255 255 255
-0.0743515   0.504951    1.62211 255 255 255
-0.14902 0.472338  1.46591 255 255 255
-0.355145  0.410022   1.35961 255 255 255
-0.671367   1.89751   5.98632 255 255 255
0.0653493  0.280331   1.54101 255 255 255
0.0394172   0.56168   1.82458 255 255 255
0.0732313 -0.226254    1.5465 255 255 255
-0.0457454   0.303501    1.55471 255 255 255
-1.01967  1.71271  6.13717 255 255 255
-0.260012   1.48518   5.98812 255 255 255
0.0651729 -0.230722   1.51302 255 255 255
-1.38758 -1.77916  2.95701 255 255 255
0.183582  0.16155  1.60733 255 255 255
0.00263268   0.546154    1.74613 255 255 255
-0.132365 -0.140607   1.48838 255 255 255
-0.18387 0.504174  1.35351 255 255 255
-0.569482   1.27469   6.55827 255 255 255
0.144327 0.273134  1.57446 255 255 255
-0.219306   1.19137   6.09095 255 255 255
0.0281596  0.539232   1.83463 255 255 255
-0.162832  0.452544   1.41545 255 255 255
-1.70185  1.03999  6.90883 255 255 255
  0.166474 -0.0275537    1.65198 255 255 255
-0.38278  1.17959  6.31221 255 255 255
0.0182724  0.543799   1.84033 255 255 255
-0.155726  0.405191   1.50463 255 255 255
0.0175645 -0.257006   1.55025 255 255 255
-1.43417 -1.82111  3.03549 255 255 255
-1.52292 -1.92001  2.97735 255 255 255
0.131816  0.16958  1.53788 255 255 255
-0.680171    1.5156    6.4659 255 255 255
-0.0920414   0.515472    1.41584 255 255 255
-0.0260641   0.555394    1.59637 255 255 255
0.0204473  0.525237   1.83195 255 255 255
-1.01547  1.84856  6.07923 255 255 255
   0.159716 -0.00114668     1.70736 255 255 255
-0.00378317    0.505062     1.70017 255 255 255
-0.0544052   0.545581    1.57857 255 255 255
-0.177927  0.021109   1.48376 255 255 255
-0.155896  0.454749   1.47716 255 255 255
-0.347924  0.405025   1.36417 255 255 255
-0.0949784   0.537501    1.46519 255 255 255
-0.20955 0.435089    1.408 255 255 255
-0.0848944   0.466099     1.6156 255 255 255
-0.235638   1.33254   6.05473 255 255 255
-0.00603179    0.546921     1.71213 255 255 255
-0.138138  0.150024   1.51577 255 255 255
-0.0830995   0.488701    1.54992 255 255 255
-0.0810905   0.505627    1.46374 255 255 255
0.0653827  0.303281   1.60255 255 255 255
-0.174705   0.52174   1.39678 255 255 255
0.0422608  0.272121   1.54069 255 255 255
0.0430296  0.271617   1.54026 255 255 255
0.0993108  -0.28614   1.63388 255 255 255
-0.0996627   0.499247    1.62809 255 255 255
-0.207332 0.0758957   1.52868 255 255 255
0.0412836 -0.170952   1.50288 255 255 255
-0.301823  0.347709   1.46077 255 255 255
-0.0869165  -0.166423    1.47947 255 255 255
  0.109405 -0.0566781     1.5026 255 255 255
-0.111268   0.50894   1.46785 255 255 255
-0.0366653   0.461979     1.8606 255 255 255
0.0738074 -0.306671    1.6253 255 255 255
-0.0549473   0.499066    1.58886 255 255 255
-0.547925   1.47393   6.37592 255 255 255
-0.0691888  -0.163899    1.47067 255 255 255
-0.23021 0.440027  1.43699 255 255 255
-0.339015 0.0493889   4.87734 255 255 255
-0.00767771   -0.161848      1.4759 255 255 255
0.0412814 -0.255427   1.53123 255 255 255
0.0881909  -0.27129   1.60098 255 255 255
0.00359718   0.568102    1.70811 255 255 255
-0.0323749   0.504665    1.73199 255 255 255
0.00969562    0.58469    1.63724 255 255 255
-0.0269126   0.177734    1.48515 255 255 255
-0.0649802  0.0016418      1.483 255 255 255
   0.108422 -0.00175427     1.59868 255 255 255
0.0111898  0.236073   1.51624 255 255 255
-0.0909554   0.478462    1.55289 255 255 255
   0.120553 -0.00266526      1.5838 255 255 255
-0.186477  0.474409   1.35543 255 255 255
-0.273162  0.408224    1.4434 255 255 255
-0.102268  0.513326   1.47744 255 255 255
0.219751 0.554144  2.24807 255 255 255
-0.151102 -0.170836   1.49418 255 255 255
-0.0631747  -0.174404    1.47294 255 255 255
-0.0629674   0.173608    1.50486 255 255 255
0.122798 0.274833  1.54399 255 255 255
-0.383441  0.107338   5.03154 255 255 255
-0.0951515   0.479505    1.60886 255 255 255
-0.388559   1.37663   6.30152 255 255 255
-0.631137   1.33851   6.18037 255 255 255
-0.0136031    0.51114    1.68116 255 255 255
-0.235683   1.29775    6.0461 255 255 255
-0.0600964   0.526332    1.48841 255 255 255
-0.0479166   0.331203    1.55904 255 255 255
-0.213458  0.438298   1.42751 255 255 255
0.118604 0.171986    1.547 255 255 255
-0.127694 -0.121698   1.48516 255 255 255
-0.24673 0.409766   1.4558 255 255 255
0.0344192  0.260276   1.52929 255 255 255
-0.0733314   0.229842    1.52703 255 255 255
 -0.2599 0.400723  1.44959 255 255 255
-0.0883998   0.472989    1.56185 255 255 255
-0.0797624   0.523109    1.44897 255 255 255
-0.0704749    0.22874      1.511 255 255 255
-0.00754066    0.201626     1.49287 255 255 255
  0.124896 -0.0219301    1.57382 255 255 255
0.0499687  0.221351   1.50164 255 255 255
-0.110853 -0.195458   1.49326 255 255 255
-0.0351833  -0.170502    1.48007 255 255 255
 -0.107822 -0.0670211    1.49419 255 255 255
0.0103782  0.175573    1.4914 255 255 255
-1.50175 -1.83489  2.90579 255 255 255
 -1.6663 -1.94505  2.84767 255 255 255
0.00673376   0.586656    1.65276 255 255 255
-0.241632  0.420694   1.39973 255 255 255
-1.40381 -1.87096  3.08665 255 255 255
0.139868  0.12029  1.57055 255 255 255
-0.079676  0.530474   1.52132 255 255 255
0.0102883  0.155856   1.48528 255 255 255
0.170897 0.146078  1.56377 255 255 255
0.129905 0.260162  1.55839 255 255 255
0.0161935  0.107765   1.51899 255 255 255
0.121246 0.245478  1.60353 255 255 255
  0.214866 -0.0102461     1.7231 255 255 255
0.131783 0.269056  1.66464 255 255 255
  0.170915 -0.0614378    1.63091 255 255 255
    -0.18719 -0.000951541      1.47219 255 255 255
-1.43527 -1.77386  3.25522 255 255 255
  0.159048 -0.0146366    1.67892 255 255 255
 0.0879452 -0.0515911    1.50695 255 255 255
0.917948 -1.31087  5.39624 255 255 255
 -0.214219 -0.0918888    1.50478 255 255 255
0.0897583   1.75514   4.96266 255 255 255
-0.0150736   0.493281     1.7892 255 255 255
0.163068 0.199403  1.61874 255 255 255
-0.0414994   0.453164    1.85427 255 255 255
-0.0838319  -0.231448    1.50337 255 255 255
-1.44019 -1.80798  3.03686 255 255 255
-0.02039 0.462287  1.83746 255 255 255
-0.318399  0.283153   1.55486 255 255 255
 1.07415 -1.45495  5.50568 255 255 255
-0.332965  0.325269   1.48407 255 255 255
0.726258  1.69806  4.77324 255 255 255
0.00383323   0.570237    2.20609 255 255 255
0.069533  1.85503  5.77058 255 255 255
0.156639 0.168543  1.57467 255 255 255
-0.345154  0.158873   1.40427 255 255 255
 0.0635118 -0.0142106    1.50906 255 255 255
-0.164928  0.465698   1.42565 255 255 255
 0.132423 -0.199337   1.59416 255 255 255
0.104448 0.631831  1.99566 255 255 255
-1.42293 -1.79393  3.06649 255 255 255
-0.371971  0.344282   1.44904 255 255 255
-0.231454   0.44589   1.40404 255 255 255
0.818649 -1.58335  5.48637 255 255 255
-0.11367   1.3519  6.02623 255 255 255
 -0.216694 -0.0793537    1.49564 255 255 255
0.0927995  0.632275   2.02545 255 255 255
0.0672357  0.607619   2.03176 255 255 255
0.476634 -1.41808  5.53547 255 255 255
0.0300601   1.53387   6.01149 255 255 255
0.0149898  0.575493   1.74139 255 255 255
0.731734  1.60333  6.13006 255 255 255
0.0963779   1.29931   6.13376 255 255 255
-0.0982633     0.2846    1.52617 255 255 255
0.0289733  0.562289    1.8411 255 255 255
-0.0303422   0.923823    6.19104 255 255 255
-0.208264 -0.135939   1.50965 255 255 255
-0.278557   1.61662   6.20853 255 255 255
0.44712 1.60061 6.08486 255 255 255
-1.04127  1.45426  6.45058 255 255 255
-0.323067  0.338629   1.46632 255 255 255
0.839695  1.32996  5.94135 255 255 255
0.0932236 0.0677077   1.50951 255 255 255
-0.0228503    1.62984    6.31388 255 255 255
 -2.5191 -1.72197  6.35666 255 255 255
-0.0385149   0.514035     1.7436 255 255 255
0.183929 -1.62098   5.8791 255 255 255
0.0752226 -0.238231   1.53278 255 255 255
-0.147983   0.47205   1.46565 255 255 255
-0.0378401  -0.123537     1.4689 255 255 255
-0.0182884   0.551948    1.66028 255 255 255
0.506496 -1.88029  5.97546 255 255 255
-0.290907  0.350308    1.4749 255 255 255
   0.0887845 -0.000909891      1.52358 255 255 255
-0.161007 -0.015237   1.49165 255 255 255
-0.0448675   0.263407    1.53084 255 255 255
-0.035486  -0.19475    1.4957 255 255 255
-0.102264 -0.265745   1.51496 255 255 255
0.0192971   1.87217   5.77585 255 255 255
0.457784  1.76335  5.18374 255 255 255
-0.0541182   0.454079    1.85245 255 255 255
-0.0403362   0.450854    1.83531 255 255 255
0.069391  1.11834  6.19319 255 255 255
-0.268411  0.439638   1.36906 255 255 255
-0.0435348  -0.080527    1.47786 255 255 255
-0.0122443   0.525158    1.74049 255 255 255
-0.211133   0.43726   1.41488 255 255 255
-0.101601 -0.124986   1.47423 255 255 255
-0.0499138   0.220371    1.50499 255 255 255
-0.184202 -0.181807     1.502 255 255 255
-0.208081 -0.034406   1.46704 255 255 255
-0.553974   1.49446   6.33518 255 255 255
-0.269571  0.403105   1.43904 255 255 255
-0.0576026   0.312454    1.55586 255 255 255
-2.61668 -1.67344  6.28878 255 255 255
-0.301454   1.66041   5.96671 255 255 255
-0.264529  0.399342   1.42029 255 255 255
-0.165599  -0.29442    1.5482 255 255 255
0.0083367 -0.227001   1.50959 255 255 255
0.0217128 -0.235174   1.62549 255 255 255
0.0261718  0.538623   1.85893 255 255 255
0.0844631  0.603203   1.90138 255 255 255
-0.281722  0.387008   1.45285 255 255 255
0.0506069  0.596147   1.87175 255 255 255
-0.139755 -0.101652   1.49336 255 255 255
-0.504721   1.55325   6.07647 255 255 255
-0.000494856     0.562884      1.73986 255 255 255
0.0220448 -0.211771   1.52744 255 255 255
-0.343428  0.377854   1.39315 255 255 255
0.908232 -1.49148  5.39668 255 255 255
-0.0835219   0.172679    1.49004 255 255 255
-0.383102   1.48155   6.23263 255 255 255
-0.0156099   0.502856    1.76959 255 255 255
0.00605617   0.222939    1.50881 255 255 255
0.300474 0.959742  6.03513 255 255 255
0.0226199  0.560185   2.00693 255 255 255
-0.111259  0.255822   1.51757 255 255 255
-0.956529   1.48471   6.32247 255 255 255
0.00846977  -0.130782    1.48883 255 255 255
-2.60604 -1.59061  6.29954 255 255 255
-0.0461816  -0.163814    1.48261 255 255 255
-0.00172992     0.55246     1.73126 255 255 255
-0.345692   0.39876   1.37023 255 255 255
-0.00368056   -0.156274     1.48247 255 255 255
-0.0633215 -0.0584745    1.47675 255 255 255
 -0.171337 -0.0669341    1.46811 255 255 255
0.101019 0.648005  1.93676 255 255 255
0.0628754 -0.304269   1.62829 255 255 255
-0.0578902  -0.157814    1.47765 255 255 255
-0.301522  0.402421   1.38792 255 255 255
-0.349869   1.49265   6.02426 255 255 255
-0.243207  0.414788   1.43972 255 255 255
-0.285466  0.392934   1.40055 255 255 255
0.0565862  -0.30427   1.61124 255 255 255
0.0571946  0.605918   2.05034 255 255 255
  0.188603 -0.0515211    1.66879 255 255 255
-0.0802107   0.284958    1.53912 255 255 255
0.0033389  0.567728    1.7081 255 255 255
0.0357317 -0.262268   1.55321 255 255 255
-0.339378  0.342575   1.45409 255 255 255
-0.161656  0.409926   1.49478 255 255 255
-0.114489 -0.321827   1.92516 255 255 255
-0.188207  0.410756   1.48156 255 255 255
0.0432917    0.5471   1.84893 255 255 255
-0.141596  0.497631   1.42222 255 255 255
-0.183677 -0.411974    1.7937 255 255 255
-0.181677 -0.249965   1.52847 255 255 255
 0.113677 -0.233987   1.60335 255 255 255
0.441812  0.40097  2.48251 255 255 255
-0.0224821   0.347462    1.66342 255 255 255
-0.361866  0.286466   1.52449 255 255 255
0.809125 -1.60199  5.68381 255 255 255
-0.379843  0.348333   1.41915 255 255 255
-0.225259 0.0410202   1.51309 255 255 255
-0.267901  0.433405    1.3841 255 255 255
-0.247553 -0.326028    1.6177 255 255 255
-0.331516   0.44618   1.22313 255 255 255
-0.0180546   0.604273    1.54507 255 255 255
-0.338033  0.445946   1.25345 255 255 255
 -0.3746 0.326172  1.44081 255 255 255
-0.368588  0.341868   1.45227 255 255 255
-0.00610011    0.554402     1.69701 255 255 255
-0.259741  0.462267   1.32391 255 255 255
-0.334051  0.442885   1.26804 255 255 255
1.60859 1.43142 5.02161 255 255 255
-0.379038  0.440343   1.24821 255 255 255
-0.0174321   0.598133    1.58507 255 255 255
-0.393827  0.403235   1.35397 255 255 255
-0.283826  0.427564   1.32452 255 255 255
-0.410395  0.334355   1.51867 255 255 255
0.983001  1.85903  4.74282 255 255 255
 -0.258372 -0.0434282    1.51569 255 255 255
-0.459443 0.0748407   2.19591 255 255 255
-0.0683961   0.473807    1.65572 255 255 255
-0.343655  0.407299   1.34812 255 255 255
-0.0377299   0.569831      1.573 255 255 255
-0.386525   0.43207   1.23889 255 255 255
-0.0258669   0.576873     1.5939 255 255 255
-0.325867  0.443938   1.30535 255 255 255
-0.368622  0.358251   1.42927 255 255 255
  0.163329 -0.0239118    1.60298 255 255 255
-0.423338  0.432052   1.27745 255 255 255
 -0.24014 -0.192923   1.52101 255 255 255
0.807967 -1.53771  5.53199 255 255 255
 -0.344426 -0.0593798    1.65916 255 255 255
 -0.241228 -0.0280305    1.52722 255 255 255
-0.00380341    0.583296     1.66701 255 255 255
0.0197677  0.545016    1.7702 255 255 255
-0.0649861   0.453403    1.66643 255 255 255
0.000940272    0.515575     1.77802 255 255 255
-0.149547  0.475315   1.43332 255 255 255
-0.355556  0.404162    1.3584 255 255 255
 1.4789 1.50733 5.11832 255 255 255
0.142644 0.218496  1.60263 255 255 255
-0.152234  0.509824   1.39073 255 255 255
0.0841677  0.294735   1.59238 255 255 255
0.805553 -1.46616  5.61637 255 255 255
-0.133825  0.536754   1.39224 255 255 255
-0.159023  0.400611   1.48213 255 255 255
-0.430637   0.42716   1.25692 255 255 255
-0.085515 -0.231577   1.48323 255 255 255
0.00247844   0.597932    1.67539 255 255 255
-0.38618  0.39949  1.35811 255 255 255
1.44226 -1.3734 5.13154 255 255 255
-0.129479  0.523462   1.39553 255 255 255
  0.066442 -0.0405912    1.48361 255 255 255
 0.134155 -0.060321   1.53467 255 255 255
-0.0294807   0.585537     1.5349 255 255 255
0.078237 0.303785  1.63574 255 255 255
-0.363308  0.398635   1.34728 255 255 255
 -0.13144 -0.104847   1.47819 255 255 255
-0.430863  0.427627   1.27808 255 255 255
-0.395764  0.425844   1.25186 255 255 255
 -0.211838 -0.0837292    1.49412 255 255 255
 -0.191325 -0.0969085    1.48833 255 255 255
-0.334698   0.40786   1.31133 255 255 255
-0.269984  0.427208   1.33789 255 255 255
-0.392522  0.446904   1.22631 255 255 255
0.873462 0.944064  3.69031 255 255 255
-0.425687  0.432369   1.23918 255 255 255
-0.097612 -0.228898   1.48277 255 255 255
-0.209129  0.448196   1.43725 255 255 255
-0.39622 0.336817  1.45176 255 255 255
-0.376403  0.339596   1.45942 255 255 255
0.146145  0.23053  1.61654 255 255 255
-0.298986 -0.280052   1.66581 255 255 255
1.00312 1.91817 4.86896 255 255 255
-0.256225 -0.307485   1.60685 255 255 255
-2.26885 -1.71455  6.18006 255 255 255
-0.315912  0.455625   1.25984 255 255 255
-0.0562751  -0.128762     1.4718 255 255 255
-0.298872  0.385789   1.42867 255 255 255
-0.370396  0.398785   1.35663 255 255 255
 -0.267544 0.00138862    1.54366 255 255 255
-0.201328  0.384866   1.46749 255 255 255
-0.379644  0.425342   1.25099 255 255 255
-0.0803131  -0.121656    1.47829 255 255 255
-0.386476  0.463916    1.2236 255 255 255
-1.42791  1.04585  6.63097 255 255 255
-0.331025  0.316894   1.49184 255 255 255
-0.428309  0.427054   1.23381 255 255 255
-0.218179 -0.213974    1.5274 255 255 255
-0.235183  0.446724   1.38171 255 255 255
-0.242863 -0.115855   1.51143 255 255 255
-0.110317 -0.218687   1.48807 255 255 255
-0.184371  0.505507   1.35423 255 255 255
-0.140943 -0.123593   1.47984 255 255 255
-0.106256  0.493154   1.50832 255 255 255
-0.255707 -0.113676   1.53652 255 255 255
-0.35626 0.396712  1.35854 255 255 255
-0.0337499  -0.151253    1.47143 255 255 255
 -0.267032 -0.0457491    1.53024 255 255 255
-0.451027  0.399263   1.37821 255 255 255
-0.227875  0.429148   1.44174 255 255 255
0.999764  1.55284  5.84895 255 255 255
-0.339003  0.428094   1.30095 255 255 255
-0.431745  0.417142   1.28307 255 255 255
-0.320627  0.439804   1.31928 255 255 255
-0.00180513    0.193353     1.49215 255 255 255
  -0.224829 -0.00134204     1.49057 255 255 255
-0.246742  0.466546   1.32673 255 255 255
-0.240841  0.443648   1.38784 255 255 255
-0.0901158  -0.120743    1.47481 255 255 255
0.0697325 -0.112645   1.49923 255 255 255
0.332912 -1.63936  5.71781 255 255 255
-0.0166342 -0.0426209    1.47769 255 255 255
-0.285519   0.41539   1.38812 255 255 255
-0.0735343   0.522308    1.54365 255 255 255
0.161169 0.182194  1.59773 255 255 255
