ply
format ascii 1.0
element vertex 1137
property float x
property float y
property float z
property uchar red
property uchar green
property uchar blue
end_header
0.86071  1.4096   5.575 255 255 255
 1.27087 -1.32368  4.86901 255 255 255
  1.4698 -1.40755  4.78996 255 255 255
1.06162 1.15341 5.57507 255 255 255
-0.107047  -0.25735    1.5046 255 255 255
 -0.14122 -0.128114   1.47496 255 255 255
-2.04239 -1.57263  5.59446 255 255 255
-0.356173  0.424427   1.31158 255 255 255
-0.296254  0.464244   1.31584 255 255 255
0.852209 -1.41596   5.1495 255 255 255
-0.264664   0.48918   1.32592 255 255 255
-0.190367 -0.246173    1.5059 255 255 255
-0.113525  0.125492   1.48718 255 255 255
-0.276171  0.387347   1.45211 255 255 255
-1.95597 -1.46671  6.13052 255 255 255
-0.0815839  0.0789218    1.47494 255 255 255
-0.260502  0.413492   1.42093 255 255 255
 0.73284 -1.36778  5.16528 255 255 255
-0.254829 -0.229993   1.54265 255 255 255
-0.0444604  -0.151951    1.47281 255 255 255
-0.186992 -0.264963    1.6706 255 255 255
-0.0434251  0.0924807    1.49086 255 255 255
-1.47409 -1.69925  2.94357 255 255 255
-0.0892039   0.458735    1.74141 255 255 255
0.0678656  0.715644   1.67359 255 255 255
-0.279501  0.400581   1.42298 255 255 255
-0.205858  0.453322   1.42185 255 255 255
0.0783418  -1.35579   5.63228 255 255 255
0.194088 0.113441  1.57828 255 255 255
 0.107671 -0.052224   1.51292 255 255 255
-0.0722506   0.564176      1.517 255 255 255
0.0106219  0.614176   1.65699 255 255 255
-0.881417  0.710394   6.05267 255 255 255
-0.0199657   0.552836    1.64026 255 255 255
-0.198526  0.403875   1.45418 255 255 255
-0.162784  -1.23688   5.35115 255 255 255
-1.10064 0.692732  6.01401 255 255 255
-0.174287  0.474324   1.41577 255 255 255
0.00159482    0.58418    1.63392 255 255 255
0.0677329  0.666521   1.82116 255 255 255
-0.0739093   0.577567    1.47056 255 255 255
-0.200916  0.502957   1.33288 255 255 255
-0.18075 0.422692  1.48176 255 255 255
 -0.13305 0.0748699   1.48899 255 255 255
-0.351435  0.360174   1.43414 255 255 255
-0.145833  0.539956   1.38302 255 255 255
-0.0110744   0.656473    1.54091 255 255 255
-0.755232  0.696399   6.00862 255 255 255
 -0.145949 -0.0124557    1.49985 255 255 255
0.117674 0.171372  1.52661 255 255 255
0.0532329  0.612478   1.80368 255 255 255
0.0599096  0.608886   1.78709 255 255 255
-0.193287   1.45525   5.66433 255 255 255
-0.19415 0.488675  1.34705 255 255 255
-0.139371  0.552787   1.35799 255 255 255
-0.274036  0.337835   1.47771 255 255 255
-0.0577699   0.473321     1.9588 255 255 255
-0.175335   0.51547   1.36177 255 255 255
-0.474594   1.29389   5.83211 255 255 255
0.0303943  0.562108    2.0161 255 255 255
-0.0107276   0.476382    1.80359 255 255 255
-0.26349 0.414949  1.40583 255 255 255
-0.00149728    0.639017     1.55448 255 255 255
-0.194186  0.525784    1.3292 255 255 255
-0.107419 -0.208432   1.49685 255 255 255
0.0992197 0.0103866   1.54902 255 255 255
-0.256957   1.30075   5.69065 255 255 255
-0.0107691   0.661638    1.53017 255 255 255
-0.23746 0.433478  1.38811 255 255 255
-0.580631  0.765659   5.97583 255 255 255
-0.625976   1.37016    5.8801 255 255 255
-0.0574856     1.4842    5.83739 255 255 255
-0.00889869    0.519898     1.71709 255 255 255
-0.267348  0.446041   1.34808 255 255 255
-0.0658887    1.07996    5.74703 255 255 255
-0.157706  0.521294   1.37954 255 255 255
-0.296259  0.854537   5.82218 255 255 255
-0.264117  0.602578   4.99577 255 255 255
 0.124934 -0.254248   1.70857 255 255 255
-0.0404351  -0.196048    1.49283 255 255 255
-0.0589447   0.611316    1.45775 255 255 255
-0.326088 0.0991435   4.66114 255 255 255
0.0612358  0.592883   1.91895 255 255 255
0.183664 0.122658  1.59969 255 255 255
-0.16122 0.486699   1.3929 255 255 255
 0.105487 0.0021803   1.52357 255 255 255
0.00938677   0.568479    1.69944 255 255 255
-0.0745361 -0.0382452    1.48031 255 255 255
-0.508228   1.35828   5.97268 255 255 255
  0.128683 -0.0624966    1.54158 255 255 255
0.00113245   0.602479    1.65266 255 255 255
0.131811 0.216083  1.56921 255 255 255
0.246169 -1.52449  5.38277 255 255 255
-1.39461 -1.74372  2.91879 255 255 255
-0.170989  0.480299   1.37662 255 255 255
-0.00304943    0.549201     1.67475 255 255 255
-0.13602 0.497864  1.44689 255 255 255
0.0178544  0.851013   2.32059 255 255 255
0.0134436  0.528515   1.85456 255 255 255
-0.0898172   0.561563    1.47817 255 255 255
-0.276562  0.463476   1.31811 255 255 255
-1.48648 -1.69316   2.9288 255 255 255
-0.191748  0.505986   1.34212 255 255 255
-0.12177 0.491829  1.48461 255 255 255
0.112681  0.61301  4.82989 255 255 255
-0.0930339   0.499797    1.55297 255 255 255
-0.0982594   0.501169    1.56344 255 255 255
  -0.167411 0.000531704     1.50242 255 255 255
-0.0949155   -0.10548    1.47957 255 255 255
0.0255241  0.539341   1.78281 255 255 255
-0.0467635   0.606683    1.50129 255 255 255
-0.200316   1.34472   5.78552 255 255 255
-0.0544252   0.565567    1.53369 255 255 255
-0.195442  0.520408   1.33084 255 255 255
-0.0547566   0.615057    1.46479 255 255 255
-0.0600831   0.586147    1.49842 255 255 255
-0.00307025    0.587681     1.63175 255 255 255
-0.0743004   0.266254      1.532 255 255 255
-0.0198099    0.63453    1.54429 255 255 255
-0.132967  0.434983   1.51323 255 255 255
-0.0768997   0.571953    1.47358 255 255 255
-0.0524748   0.621523    1.46655 255 255 255
-0.201038  0.383381     1.479 255 255 255
-1.36345 -1.77085  2.91828 255 255 255
-0.29776 0.429492  1.37516 255 255 255
-0.119049  0.528441    1.4495 255 255 255
  -0.144331 -0.00632376      1.4759 255 255 255
-0.166012 -0.196371   1.50146 255 255 255
-0.0928181   0.524489    1.47289 255 255 255
-0.0535141   0.570984    1.54672 255 255 255
-0.232128  0.297113   1.49463 255 255 255
-0.0612328   0.594492     1.4875 255 255 255
-0.0520445    0.60576    1.49206 255 255 255
0.185416 0.167627   1.6235 255 255 255
  0.108336 -0.0630844    1.50334 255 255 255
-1.49676 -1.64986  2.98822 255 255 255
0.0235395  0.294234   1.54486 255 255 255
-0.00513201    0.551333     1.71068 255 255 255
-0.0244714    1.06026    5.75884 255 255 255
-0.0505847   0.602817    1.49846 255 255 255
-0.593604  0.883251   5.86688 255 255 255
-0.468119   1.52409   5.69984 255 255 255
-0.0109076   0.645882    1.54491 255 255 255
-0.201267  0.400347   1.47946 255 255 255
-1.41327 -1.69236  2.85609 255 255 255
0.0738087  0.625694   1.79629 255 255 255
-1.51559 -1.55004  3.01899 255 255 255
0.190867 0.689943  2.83087 255 255 255
-0.286107  0.430655   1.36288 255 255 255
0.0445353  0.578187    2.0247 255 255 255
-0.100373  0.550325   1.45437 255 255 255
-0.0353687   0.604026    1.53488 255 255 255
-0.263181  0.467873   1.32619 255 255 255
-0.0802786   0.205678    1.49881 255 255 255
-0.807114  0.682434   6.00182 255 255 255
-0.0658507     0.4817    1.68818 255 255 255
0.190047 -1.37122  5.42245 255 255 255
-0.0720074 -0.0310474    1.47906 255 255 255
-0.0359333    0.50544    1.74695 255 255 255
-0.00776017    0.163234     1.47795 255 255 255
 -0.123316 -0.0952116    1.47997 255 255 255
-0.328937  0.846512     5.877 255 255 255
0.0296457  0.216303   1.50721 255 255 255
-0.338411  0.399708   1.37641 255 255 255
-0.263716  0.405228   1.41504 255 255 255
0.0967124 0.0932265    1.5221 255 255 255
-0.0579868   0.101965    1.47782 255 255 255
-0.241805  0.298042   1.48952 255 255 255
 -0.167268 -0.0455959     1.4611 255 255 255
0.125273 0.158889  1.56144 255 255 255
-0.0945185   0.363752    1.57115 255 255 255
-0.227411  -0.33735   1.70329 255 255 255
-0.425866  0.449545   1.25056 255 255 255
-0.144507  0.400004     1.527 255 255 255
-0.214829  0.505019   1.25539 255 255 255
1.03983 1.11154 3.28113 255 255 255
-0.113774  0.469357   1.51129 255 255 255
-0.300866  0.493637   1.22001 255 255 255
-0.420626   0.40754    1.3553 255 255 255
-0.314993  0.456618   1.30647 255 255 255
-0.276798  0.423726   1.38989 255 255 255
-0.305645  0.353511   1.46177 255 255 255
-0.403682  0.396538   1.38079 255 255 255
-0.320559   0.45697   1.25464 255 255 255
-0.33877 0.389112  1.48072 255 255 255
-0.403913  0.369155   1.37902 255 255 255
-0.154513 0.0176124   1.47064 255 255 255
-0.421483  0.415896   1.29706 255 255 255
-0.0761374   0.312122    1.54942 255 255 255
-0.245701  0.491674   1.30547 255 255 255
-0.365676 0.0378282   1.74151 255 255 255
 1.0941 1.08894  3.6264 255 255 255
-0.21524 0.475133  1.28431 255 255 255
-0.463218  0.426023   1.29264 255 255 255
-0.460173  0.423071   1.35163 255 255 255
-0.456668  0.487143   1.20324 255 255 255
-0.263991  0.506748   1.25166 255 255 255
-0.360501  0.343805   1.48179 255 255 255
-0.360567  0.347846   1.50225 255 255 255
1.05911 1.16943 3.23701 255 255 255
1.20272 1.12121 3.68908 255 255 255
-0.476885  0.476881   1.20542 255 255 255
-0.435898  0.449657   1.22836 255 255 255
-0.324847  0.501313   1.22178 255 255 255
-0.433962  0.409521   1.32922 255 255 255
-0.417317  0.434009   1.43098 255 255 255
-0.918963  0.563246   4.78369 255 255 255
-0.26813 0.479729  1.30016 255 255 255
-0.393359  0.407529   1.30425 255 255 255
   -0.43 0.477307  1.21687 255 255 255
-0.388433  0.352193   1.42528 255 255 255
-0.121177 0.0609578   1.49421 255 255 255
-0.32586 0.487603  1.22987 255 255 255
-0.445332  0.482266   1.21158 255 255 255
-0.42514 0.398966  1.36969 255 255 255
-0.621575  0.245643   7.32213 255 255 255
-0.364373  0.444189   1.30567 255 255 255
-0.463834  0.407612   1.35938 255 255 255
-0.14986 0.471763  1.45628 255 255 255
-0.419553   0.34688   1.43193 255 255 255
-0.0180735 -0.0478695    1.47808 255 255 255
-0.403998  0.431141   1.28357 255 255 255
-0.229017  0.445516   1.31913 255 255 255
-0.294616 -0.304555   1.67876 255 255 255
-0.355953  0.407919    1.5039 255 255 255
1.02384 1.23037 3.29151 255 255 255
-0.367278  0.475449   1.22377 255 255 255
-0.380033  0.421992   1.49502 255 255 255
-0.474137  0.460797    1.2254 255 255 255
-0.26672 0.467172  1.32604 255 255 255
 -0.188607 -0.0156994    1.46111 255 255 255
 -0.4504 0.454079  1.22948 255 255 255
-0.42715 0.368817  1.45985 255 255 255
-0.404864  0.442456   1.22842 255 255 255
-0.281629 -0.051283   1.55202 255 255 255
 -0.241676 -0.0096106     1.5149 255 255 255
 -0.3838 0.363889  1.40437 255 255 255
-0.48168 0.461917   1.2126 255 255 255
 0.96109 0.996636  3.79261 255 255 255
-0.335827  0.475624   1.26671 255 255 255
-0.410277  0.469674   1.21869 255 255 255
-0.428439  0.437968    1.2287 255 255 255
-0.377106 -0.134947   1.75867 255 255 255
-0.367717  0.450933   1.22375 255 255 255
-0.245279   0.39981   1.47148 255 255 255
-0.384021  0.487178   1.21267 255 255 255
 -0.202484 -0.0819516    1.46799 255 255 255
-0.365655  0.446599   1.25184 255 255 255
-0.373305  0.494805   1.20987 255 255 255
-0.453498  0.440055   1.25041 255 255 255
-0.00561848    0.575302     1.66987 255 255 255
-0.0698246  -0.175165    1.47413 255 255 255
-0.390052   0.44719   1.23671 255 255 255
-0.407647  0.375325   1.48083 255 255 255
-0.321449  0.296635   1.54453 255 255 255
-1.77186 -1.33886  6.23399 255 255 255
-0.333444  0.355019   1.47902 255 255 255
-0.449733  0.365746   1.71422 255 255 255
-0.331231  0.353035   1.46858 255 255 255
-0.368907  0.468971   1.23046 255 255 255
-0.0551022   0.505724    1.60193 255 255 255
-0.500153  0.453401   1.26865 255 255 255
  0.115534 -0.0064536    1.53204 255 255 255
-0.446489  0.417675   1.30895 255 255 255
-0.452401  0.420902    1.4729 255 255 255
-0.383295  0.372923   1.48024 255 255 255
-0.37686 0.383287  1.39121 255 255 255
0.0313116  0.656101   1.56988 255 255 255
-0.349021  0.458341   1.22568 255 255 255
-0.175723 0.0184278   1.48892 255 255 255
-0.0383336     0.5031    1.76951 255 255 255
-0.464149  0.438484   1.26175 255 255 255
-0.390461   0.46464   1.22482 255 255 255
-0.0998011   -0.20322    1.47635 255 255 255
-0.431585  0.458175   1.22521 255 255 255
-0.450551  0.433102   1.27328 255 255 255
0.973524 -1.66443  5.35647 255 255 255
-0.415574  0.433551    1.2827 255 255 255
-0.163903  0.481959   1.47592 255 255 255
-0.368557  0.437302     1.296 255 255 255
-0.44372 0.437374  1.27717 255 255 255
-1.43828 0.726408  6.40691 255 255 255
-0.422057  0.461662   1.21975 255 255 255
-0.425591  0.430111   1.28708 255 255 255
1.29619 1.05465 3.73663 255 255 255
-0.46234 0.432907  1.28368 255 255 255
-0.0503338    0.50669    1.68481 255 255 255
-0.053041  0.307909   1.53811 255 255 255
-0.46845 0.436479  1.27913 255 255 255
0.0162316  0.585733   1.73471 255 255 255
-0.488987  0.444163   1.26518 255 255 255
-0.140069 -0.186421   1.48175 255 255 255
-1.83648 -1.68121  6.11212 255 255 255
-0.369875  0.454605   1.25428 255 255 255
 -0.201533 -0.0819442    1.48364 255 255 255
-0.292394  0.458938   1.32231 255 255 255
-0.438093    0.4371   1.23392 255 255 255
-0.400168  0.427341   1.29912 255 255 255
 -0.184878 -0.0893296    1.48431 255 255 255
-0.355894   0.41685    1.3213 255 255 255
  0.154027 -0.0141456    1.60501 255 255 255
0.0425409  -0.15116   1.49867 255 255 255
-0.372352  0.480204   1.21712 255 255 255
-0.256101  0.377205    1.4608 255 255 255
-0.246934  0.336863   1.49331 255 255 255
-0.258003 -0.337127    1.6676 255 255 255
-0.39052 0.434879   1.2476 255 255 255
1.02984 1.12641    3.67 255 255 255
-0.365441  0.353851   1.46754 255 255 255
1.05234 1.25144 3.37216 255 255 255
1.16086 1.06674 3.91484 255 255 255
-0.386227  0.405694   1.30507 255 255 255
-0.39584 0.346828  1.47642 255 255 255
-0.508604  0.449905   1.25882 255 255 255
-0.409543  0.396602   1.36958 255 255 255
-0.321755   0.15368   1.69888 255 255 255
-0.311747  0.390697   1.39771 255 255 255
 -0.145859 -0.0760569    1.45057 255 255 255
-1.13021 0.893457  6.03732 255 255 255
-0.455857  0.454909   1.22362 255 255 255
-0.206944 -0.131901   1.49712 255 255 255
1.06985 1.03303 3.58151 255 255 255
-1.43775  1.23782  6.30341 255 255 255
-1.72101 0.899118  6.35455 255 255 255
-0.482717  0.444588   1.24997 255 255 255
-0.40678 0.415236  1.30166 255 255 255
-0.197888 -0.215061   1.50804 255 255 255
1.02838 1.16358 3.35778 255 255 255
-0.096158  0.474362   1.55793 255 255 255
-0.224477 -0.182667   1.51491 255 255 255
0.185035  0.26886  1.71286 255 255 255
-0.213178  0.519392   1.27242 255 255 255
  0.143138 -0.0294161    1.57057 255 255 255
-0.377978  0.481969    1.2178 255 255 255
-0.0637752  -0.160027    1.47796 255 255 255
-0.196067  0.535622    1.2659 255 255 255
-0.0720136   0.213371     1.4967 255 255 255
1.12001 1.07006 3.60269 255 255 255
-0.403885  0.386566   1.38773 255 255 255
-0.0897392 -0.0471609     1.4825 255 255 255
-0.41899 0.424355  1.49093 255 255 255
 0.116253 -0.194913   1.55665 255 255 255
-0.275081  0.114334   1.57785 255 255 255
-0.0475339   0.101836    1.47634 255 255 255
-0.372482   0.38142   1.46855 255 255 255
-0.179577 -0.131893   1.48287 255 255 255
-0.291382  0.392195   1.40316 255 255 255
-0.330671    0.4408   1.30418 255 255 255
-0.419769  0.340096   1.62182 255 255 255
0.0735575 -0.230135   1.54492 255 255 255
-0.330328  0.149308   1.71689 255 255 255
 0.12728 0.278935  1.57415 255 255 255
-0.231636  -0.17084    1.5079 255 255 255
-0.171374   0.48321   1.46162 255 255 255
-0.302966  0.412094   1.38927 255 255 255
-0.185758  0.419707   1.50466 255 255 255
-0.462346   0.44646   1.22278 255 255 255
-0.346065  0.409185   1.32714 255 255 255
-1.36019  1.17165  6.50139 255 255 255
 -0.23155 -0.147304    1.5033 255 255 255
1.03514 1.29859 3.28881 255 255 255
-0.478412  0.448407   1.25796 255 255 255
-0.230552 -0.248276   1.53714 255 255 255
  0.180934 -0.0325969    1.61509 255 255 255
 0.109277 -0.205835   1.56001 255 255 255
-0.305454    0.4338   1.38575 255 255 255
-0.480233  0.453126   1.23454 255 255 255
-0.0853136   0.539661    1.44538 255 255 255
-0.16393 0.507585  1.38302 255 255 255
-0.458061  0.458822   1.22106 255 255 255
-0.173759 -0.260621   1.51269 255 255 255
-0.0450181   0.554492    1.55312 255 255 255
-0.137311 0.0863012   1.48773 255 255 255
 -1.53837 0.0847334   5.11231 255 255 255
1.26025 1.01935 3.74911 255 255 255
-0.474814  0.440216   1.25182 255 255 255
-0.417084  0.460364   1.23437 255 255 255
1.10739 1.10202 3.60238 255 255 255
  0.180608 -0.0429159    1.60183 255 255 255
1.39908 1.41441 5.20497 255 255 255
-0.180291  0.389016    1.4916 255 255 255
1.02433 1.29912 3.31392 255 255 255
-0.274545 -0.104349   1.53309 255 255 255
-0.179032  0.458325   1.45382 255 255 255
-0.175807  0.467717   1.50139 255 255 255
 -0.3487 0.438678  1.25897 255 255 255
-0.0729008  0.0413134    1.47157 255 255 255
-0.0124027    0.19475    1.50259 255 255 255
-0.0986807  -0.187341    1.47238 255 255 255
-0.182911  0.457137   1.49003 255 255 255
-0.513471  0.448375   1.27462 255 255 255
-0.208586 -0.156406   1.49278 255 255 255
-0.0380589   0.290568    1.53131 255 255 255
0.030726 0.239762  1.51648 255 255 255
 0.183374 -0.041431   1.63249 255 255 255
-0.147982  0.475096   1.49763 255 255 255
 -0.158359 -0.0858265    1.47148 255 255 255
-0.467528  0.455333    1.2242 255 255 255
-1.43475  1.47966  6.39315 255 255 255
  0.0922636 -0.00331116     1.53023 255 255 255
-0.262186 0.0240745   1.53202 255 255 255
-0.268188  -0.14647   1.52558 255 255 255
-0.365469  0.325737   1.53547 255 255 255
-0.347103  0.442458   1.29434 255 255 255
-0.055895 -0.126848   1.46596 255 255 255
-0.211588   0.49796   1.31251 255 255 255
-0.195627 -0.108805   1.49396 255 255 255
 -1.18127 0.0417248   5.03473 255 255 255
-0.0611969  -0.129576    1.47018 255 255 255
-0.438898  0.468758   1.43764 255 255 255
-0.201619  0.446253    1.4723 255 255 255
-0.037079 -0.161279    1.4701 255 255 255
-0.125857  0.438959   1.48957 255 255 255
-0.312917  0.340187   1.45985 255 255 255
-0.257009 -0.119639     1.518 255 255 255
1.18323 1.08513 3.73757 255 255 255
-0.279578  0.406657   1.43664 255 255 255
-0.48941 0.437276  1.28355 255 255 255
-0.41679 0.399128   1.3659 255 255 255
-1.00326 0.680693  4.75077 255 255 255
1.25565 1.11703 3.81946 255 255 255
-0.349733  0.445912   1.28735 255 255 255
-0.411188  0.387865   1.39311 255 255 255
0.150546 0.125242  1.55867 255 255 255
-0.239137  0.451548   1.45526 255 255 255
0.0595269  0.250289   1.52885 255 255 255
-1.20543 0.889408  4.66505 255 255 255
-0.0342212   0.352323    1.60195 255 255 255
-0.410563  0.458582   1.22693 255 255 255
-0.260142  0.419871   1.39789 255 255 255
  -0.21612 -0.0467619    1.46463 255 255 255
-0.360543  0.422641   1.30973 255 255 255
-0.00906592    0.220095     1.49427 255 255 255
-0.261878   0.43621   1.33279 255 255 255
-0.929493 0.0324119   5.12664 255 255 255
-0.580369 0.0404428   5.09121 255 255 255
-0.387368  0.424381   1.31257 255 255 255
   0.142665 -0.00185977     1.59569 255 255 255
-0.470215  0.480716   1.20683 255 255 255
-0.243774  0.418852   1.40433 255 255 255
 -0.16503 -0.167442   1.50103 255 255 255
-0.169054  0.504609   1.37938 255 255 255
-0.229268  0.517057    1.2623 255 255 255
0.0112921  0.107224   1.47776 255 255 255
-0.262271 0.0582018   1.53307 255 255 255
0.0128983 -0.138112   1.48222 255 255 255
-0.962191 0.0329919   3.97379 255 255 255
0.00184094   0.281129    1.53381 255 255 255
-0.360361  0.438568    1.2809 255 255 255
-0.0633943  0.0447677    1.46589 255 255 255
-0.268005  0.121609   1.55409 255 255 255
-0.406334  0.457664   1.22751 255 255 255
-0.395382  0.294396   1.62201 255 255 255
-0.201262 -0.235642   1.51721 255 255 255
-1.62135  0.11541  5.25725 255 255 255
-0.352872  0.421004   1.31313 255 255 255
 1.0386 1.17457 3.34004 255 255 255
-0.198654 -0.138706   1.51552 255 255 255
0.184608 -1.18353   3.9589 255 255 255
 -1.03532 0.0312348   4.99955 255 255 255
-0.0635479   0.486837    1.68619 255 255 255
 -0.215959 -0.0996247    1.50007 255 255 255
-0.106642  0.171676   1.49212 255 255 255
-0.0214784   0.282159    1.53236 255 255 255
-0.0356644   0.589039    1.53326 255 255 255
-0.442034  0.407434   1.37322 255 255 255
-0.0672742 -0.0351093    1.47128 255 255 255
-0.193447 -0.217922   1.49932 255 255 255
-0.324149  0.352833   1.47992 255 255 255
0.871126 -1.10501  3.99553 255 255 255
0.0143042  0.266576    1.5218 255 255 255
0.013031 0.191824  1.48315 255 255 255
 0.142311 -0.195639   1.62145 255 255 255
0.947473  1.06459  3.78342 255 255 255
-0.072447  0.261275   1.62579 255 255 255
 0.118662 -0.136746   1.61721 255 255 255
0.0876956 0.0630451   1.52663 255 255 255
 -0.216733 -0.0444003    1.53466 255 255 255
-0.187338  0.412594   1.47129 255 255 255
-0.064755  0.170604   1.44167 255 255 255
-0.0516634  0.0598957     1.4425 255 255 255
0.131119 0.266117   1.6283 255 255 255
 0.14109 0.010862  1.59885 255 255 255
-0.150675 0.0613824   1.46326 255 255 255
0.162058 0.153718  1.63777 255 255 255
-0.203156   0.47159   1.39719 255 255 255
-0.0540597   0.524062    1.61767 255 255 255
0.216755 0.102872  1.61081 255 255 255
0.0338789  0.556356   1.81598 255 255 255
0.121849 -0.02644  1.54688 255 255 255
  0.163043 -0.0579524    1.56678 255 255 255
  -0.249995 -0.00638695      4.5991 255 255 255
-0.199061 -0.256964   1.52577 255 255 255
-0.0341736   0.555175    1.56794 255 255 255
-1.43053 -1.84444   2.9745 255 255 255
0.191467 0.112438  1.59096 255 255 255
-1.44862 -1.77499  2.93186 255 255 255
  0.165879 -0.0331487    1.70634 255 255 255
-0.143013  -1.19709   5.26883 255 255 255
-0.10187 0.469099   1.5284 255 255 255
  0.161118 -0.0160608    1.72165 255 255 255
-6.06578 0.464067  6.89455 255 255 255
-0.00534223    0.570034     1.65877 255 255 255
-0.176452 0.0755722   1.51436 255 255 255
-0.194502  0.464288   1.41611 255 255 255
0.125267  0.16477  1.53571 255 255 255
-0.0181538   0.344146    1.70716 255 255 255
-0.220374  0.690085   5.00615 255 255 255
   0.135191 -0.00173106     1.79279 255 255 255
0.00104549   0.531822    1.71591 255 255 255
-0.0924405  -0.177473    1.48628 255 255 255
-0.008031  0.582455   1.62009 255 255 255
0.158886 0.192916  1.59174 255 255 255
0.133316 0.288053  1.64373 255 255 255
 -1.3146 -1.62787   2.9889 255 255 255
-1.32975 -1.62796  3.05923 255 255 255
 0.121776 -0.258856   1.69105 255 255 255
0.0209209  0.550234   1.82214 255 255 255
-1.4413 -1.6516 2.92582 255 255 255
-0.231998  0.434587   1.43825 255 255 255
-0.080068  0.507625    1.6218 255 255 255
-0.154629  0.475381   1.46545 255 255 255
-1.84917 -1.77948  2.70191 255 255 255
-0.359479  0.411735   1.35655 255 255 255
-0.648939   1.75274   5.62004 255 255 255
  0.0607 0.283402  1.54238 255 255 255
0.0336414  0.563394   1.82215 255 255 255
0.0676681  -0.22904   1.55027 255 255 255
-0.0513344   0.306629    1.55596 255 255 255
-0.998281   1.59549   5.84229 255 255 255
-0.270482   1.37774    5.6471 255 255 255
 0.060134 -0.233505   1.51563 255 255 255
-1.40507 -1.75934  2.95742 255 255 255
0.180078 0.163538  1.60933 255 255 255
-0.00358554    0.548747     1.74657 255 255 255
-0.137368  -0.14105   1.48653 255 255 255
-0.189221  0.508102   1.35213 255 255 255
-0.521131   1.15134   5.93149 255 255 255
0.140732 0.276597  1.57659 255 255 255
-0.231448   1.10683   5.71904 255 255 255
0.0219326  0.541046   1.83318 255 255 255
-0.166534   0.45481   1.41257 255 255 255
-1.54954 0.940686  6.32542 255 255 255
  0.160907 -0.0277907    1.65877 255 255 255
-0.377656   1.09001    5.8663 255 255 255
0.0120271  0.545461   1.83861 255 255 255
-0.161433   0.40769     1.504 255 255 255
0.0114571 -0.259638   1.55319 255 255 255
-1.37659 -1.72849  2.94477 255 255 255
-1.44921 -1.80821  2.87284 255 255 255
0.128412 0.170985  1.54153 255 255 255
-0.643031   1.38478   5.95733 255 255 255
-0.0958921   0.518933    1.41379 255 255 255
-0.0317002   0.559113    1.59707 255 255 255
0.0140987  0.527044   1.83058 255 255 255
-0.998917   1.72884   5.80687 255 255 255
     0.15349 -0.000789121      1.71446 255 255 255
-0.00941678    0.507661      1.6995 255 255 255
-0.0597208   0.548852    1.57839 255 255 255
-0.184554 0.0216248   1.48329 255 255 255
-0.161358  0.457448    1.4763 255 255 255
-0.353939  0.407326   1.36222 255 255 255
-0.0991293   0.540728    1.46322 255 255 255
-0.213089  0.436932   1.40463 255 255 255
-0.0830013   0.465916    1.60083 255 255 255
-0.248617   1.23273   5.68964 255 255 255
-0.0123716   0.549923     1.7131 255 255 255
-0.138713  0.151502   1.50734 255 255 255
-0.0886459   0.491781    1.54967 255 255 255
-0.0852902   0.508815     1.4622 255 255 255
0.0604993  0.306278   1.60362 255 255 255
-0.178355  0.524567   1.39363 255 255 255
0.0378635  0.274786   1.54066 255 255 255
0.0388987  0.274318   1.53947 255 255 255
0.0934236 -0.288851   1.63823 255 255 255
-0.105251  0.501546   1.62716 255 255 255
-0.211937 0.0770196   1.52522 255 255 255
0.0357292 -0.173015   1.50562 255 255 255
-0.30745 0.349189  1.45914 255 255 255
-0.093029 -0.167862   1.47998 255 255 255
  0.108106 -0.0559323    1.49755 255 255 255
-0.116086  0.512162   1.46664 255 255 255
-0.0429968   0.463133    1.85783 255 255 255
0.0678973 -0.309286   1.62887 255 255 255
-0.0604869   0.502106    1.58889 255 255 255
-0.527153   1.35518   5.90732 255 255 255
-0.0749235  -0.165424    1.47096 255 255 255
-0.235249  0.442189   1.43514 255 255 255
-0.336566 0.0587591   4.63313 255 255 255
-0.0127569  -0.163536     1.4765 255 255 255
0.0359797 -0.258049   1.53346 255 255 255
0.0825385  -0.27402   1.60483 255 255 255
-0.00180426    0.570657     1.70734 255 255 255
-0.0380442   0.506632    1.73053 255 255 255
0.00338686   0.589198    1.63955 255 255 255
-0.0323618   0.179783    1.48566 255 255 255
-0.0705612 0.00188787    1.48278 255 255 255
    0.105014 -0.000733169      1.59791 255 255 255
0.00564989   0.238795    1.51784 255 255 255
-0.0960487   0.481096    1.55196 255 255 255
   0.113222 -0.00297886     1.59338 255 255 255
-0.16943 0.465861  1.33028 255 255 255
-0.278112  0.409913   1.44121 255 255 255
-0.107018  0.516563    1.4762 255 255 255
0.209884 0.555282  2.24711 255 255 255
-0.157905 -0.171997   1.49459 255 255 255
-0.0683698   -0.17578    1.47256 255 255 255
-0.0685769   0.175524    1.50478 255 255 255
0.116795 0.278446  1.55199 255 255 255
-0.380741  0.106409   4.80208 255 255 255
-0.100613  0.481884   1.60796 255 255 255
-0.383935   1.27209   5.86161 255 255 255
-0.608201   1.23168   5.76713 255 255 255
-0.01911 0.513733  1.68044 255 255 255
-0.246716   1.20585   5.68318 255 255 255
-0.0645454   0.529821    1.48741 255 255 255
-0.0748312   0.337608    1.57466 255 255 255
-0.218932  0.440868   1.42625 255 255 255
0.115541 0.172604  1.54365 255 255 255
-0.135487 -0.121726   1.48657 255 255 255
-0.250033  0.410958   1.45191 255 255 255
0.0297326  0.262934   1.52993 255 255 255
-0.078991  0.232092   1.52685 255 255 255
-0.253664  0.391933   1.42121 255 255 255
-0.0937757   0.475713     1.5613 255 255 255
-0.0926968   0.533537    1.46002 255 255 255
-1.60245 -1.66381  3.06218 255 255 255
-0.075806  0.230999   1.51043 255 255 255
-0.0137509   0.203345    1.49584 255 255 255
  0.119659 -0.0222609    1.57881 255 255 255
0.0461068  0.223827   1.50134 255 255 255
-0.117316 -0.197047   1.49394 255 255 255
-0.041322 -0.172458   1.48175 255 255 255
-0.113235 -0.067159   1.49303 255 255 255
0.00520123   0.177172    1.49242 255 255 255
 -1.4484 -1.74745  2.82832 255 255 255
 -1.6029 -1.85028  2.76965 255 255 255
0.000322464    0.590999       1.655 255 255 255
-0.24506 0.422297  1.39609 255 255 255
-1.35382 -1.77836  2.99882 255 255 255
0.0881225  0.062814   1.51409 255 255 255
0.0173404  0.285232   1.55939 255 255 255
0.102946 0.211505  1.54347 255 255 255
0.14792 0.25284 1.58372 255 255 255
-0.18435 0.489612  1.39623 255 255 255
-0.103571   0.48462   1.70592 255 255 255
0.179412  0.14873  1.58357 255 255 255
  0.148384 0.00637075    1.59204 255 255 255
 0.218156 0.0980257   1.59228 255 255 255
-0.0106632   0.551605     1.8874 255 255 255
-0.164034  0.441445   1.53593 255 255 255
-1.40998 -1.80884  2.97544 255 255 255
  0.175752 -0.0337334    1.68663 255 255 255
-1.75893 -2.11215  2.79499 255 255 255
-0.0348649   0.519285    1.88458 255 255 255
-0.00812971    0.341173     1.63135 255 255 255
-1.89637 -2.15895   2.5546 255 255 255
-0.100708  0.438213   1.96403 255 255 255
 -0.195291 0.00589432    1.49835 255 255 255
-0.282219  0.470017   1.26624 255 255 255
-0.207792  0.404821   1.51548 255 255 255
-0.0271913   0.501471    1.98869 255 255 255
 -0.182395 -0.0625343    1.49748 255 255 255
-0.0357496   0.529537    1.76333 255 255 255
-0.0234661   0.551418    1.83354 255 255 255
-0.0946871   0.263424    1.54198 255 255 255
     0.13864 -0.000643958      1.70762 255 255 255
-0.0950291   0.472281    1.94455 255 255 255
-0.0265246   0.555879    1.74085 255 255 255
0.152583 0.264382  1.66123 255 255 255
-0.323985  0.337192   1.47852 255 255 255
-1.44006 -1.78017  2.93787 255 255 255
-0.105416  0.521466   1.53181 255 255 255
0.0581145  0.255471   1.53008 255 255 255
-1.92047  -2.1735  2.85486 255 255 255
0.139907 0.120565  1.56036 255 255 255
-0.179468  0.203467   1.51884 255 255 255
-1.79187  -1.6908  1.94676 255 255 255
-0.164547  0.500137   1.41126 255 255 255
-2.35503 -1.92009  2.78083 255 255 255
 0.0946109 0.00934172    1.54628 255 255 255
-1.39231 -1.68523  3.12082 255 255 255
0.153442 0.271892  1.62539 255 255 255
0.161853 0.271451   1.6211 255 255 255
-1.77495 -1.86802  1.87984 255 255 255
-0.164864  0.482394   1.43208 255 255 255
0.13618 0.10829 1.56478 255 255 255
-0.126239  0.444719   1.91654 255 255 255
-0.137239  0.407179   1.90948 255 255 255
0.0339656  0.260794    1.5297 255 255 255
-0.275645  0.431546   1.37766 255 255 255
-0.22648  0.45839  1.36682 255 255 255
-0.293653   0.43694   1.32274 255 255 255
-0.138708  0.354283   1.83989 255 255 255
-0.220341  0.504472   1.32915 255 255 255
-0.120717  0.432078   1.86865 255 255 255
0.195295  0.11777  1.62883 255 255 255
-0.110221  0.313336   1.55664 255 255 255
-0.0213369   0.550721    1.69457 255 255 255
0.150884 0.210966  1.60826 255 255 255
-1.77218 -1.81506  1.99408 255 255 255
-0.188495  0.422812   1.48229 255 255 255
-0.111902  0.548875   1.48715 255 255 255
-1.76177 -1.83389  1.89899 255 255 255
-0.140092  0.542756   1.38752 255 255 255
-0.12488 0.444098   1.9008 255 255 255
-0.109158   0.55368   1.49326 255 255 255
-0.0357002   0.321045    1.57847 255 255 255
-0.00365617    0.329477     1.64533 255 255 255
-0.0860819   0.499879    2.02561 255 255 255
-0.334535  0.406195   1.40281 255 255 255
-1.97639  -1.7893  1.95547 255 255 255
-0.0856331   0.514252    1.66378 255 255 255
-0.186639  0.370131   1.89367 255 255 255
 0.206577 0.0959167    1.5641 255 255 255
-0.0915092   0.529254    1.63929 255 255 255
-0.126928  0.503552   1.57435 255 255 255
0.077194 0.306589  1.64181 255 255 255
-0.00228489    0.507466     1.99067 255 255 255
-0.191008  0.488477    1.4709 255 255 255
-0.232453  0.387482   1.47979 255 255 255
-0.0455452   0.379878    1.61629 255 255 255
-0.0689759   0.479915    1.71994 255 255 255
-0.158234  0.500946   1.44092 255 255 255
0.143976 0.285957  1.64792 255 255 255
0.0614692  0.293196   1.56128 255 255 255
-0.254725  0.370058   1.47362 255 255 255
 0.0621008 -0.0627242    1.50719 255 255 255
  0.115026 -0.0121243    1.58252 255 255 255
-1.83595 -1.97206  2.10288 255 255 255
-0.353919  0.404061   1.34881 255 255 255
0.0106172  0.277367   1.54192 255 255 255
-0.0734221   0.526638    1.50239 255 255 255
-0.0864679   0.476813    1.63183 255 255 255
-1.76323  -1.8748  2.06036 255 255 255
0.00663886   0.176255    1.49834 255 255 255
 -1.8753 -1.89789  2.63564 255 255 255
-0.119978  0.412979   1.94065 255 255 255
-1.77733 -1.70472  1.96255 255 255 255
  0.153341 -0.0461318    1.57269 255 255 255
-1.94114 -1.92743  2.52615 255 255 255
-0.222744  0.422287    1.4516 255 255 255
-1.72172 -1.74474  1.84868 255 255 255
 0.0790994 -0.0414584    1.50145 255 255 255
-0.0971904   0.297438    1.54817 255 255 255
0.146602 0.124452  1.64672 255 255 255
0.154705 0.222391  1.59554 255 255 255
0.167945 0.152238  1.55958 255 255 255
-0.0709927   0.490547    1.69388 255 255 255
0.000300607    0.154521     1.49321 255 255 255
-2.01358 -2.26522  2.64137 255 255 255
-0.159582  0.525594   1.39642 255 255 255
0.153472 0.272267  1.61799 255 255 255
 0.0675314 -0.0416119    1.51485 255 255 255
-0.179407  0.481699   1.43578 255 255 255
0.0348119  0.566342   1.85704 255 255 255
-0.0925712   0.429126    1.94835 255 255 255
 -0.203529 -0.0613183    1.49533 255 255 255
0.160011 0.259432  1.59866 255 255 255
  0.1718 0.127405    1.641 255 255 255
-0.0683086   0.477449    1.87509 255 255 255
-1.75593 -1.78636  2.05788 255 255 255
0.169598 0.147141  1.56383 255 255 255
-0.187081   0.47346   1.49071 255 255 255
 -1.4255 -1.83624  2.93426 255 255 255
-0.0128834   0.350144    1.63566 255 255 255
0.0936702 -0.225993   1.56641 255 255 255
-0.0924445   0.447216    1.92618 255 255 255
-0.239941  0.508213   1.32504 255 255 255
-1.44157 -1.81244  2.92989 255 255 255
-0.23912 0.438384  1.39874 255 255 255
0.0188167  0.565376   1.86473 255 255 255
-0.0724788   0.509254    1.68431 255 255 255
  0.093487 -0.0123461    1.56417 255 255 255
-1.35658 -1.64251  3.03747 255 255 255
-0.0908956   0.496973    1.62008 255 255 255
-0.0820773   0.495769    1.61689 255 255 255
-2.28351 -1.77293  2.79458 255 255 255
-0.158332  0.481556   1.45754 255 255 255
-1.33569 -1.67985  3.07079 255 255 255
-0.0798112   0.485792    1.73354 255 255 255
-0.0657531   0.488447    1.88772 255 255 255
0.130415 0.262562  1.54887 255 255 255
-0.231221  0.399663   1.49537 255 255 255
  -1.679 -1.79671  1.96788 255 255 255
-1.89325  -1.9003  2.62346 255 255 255
0.0272714  0.304468   1.60527 255 255 255
   0.095271 -0.00204676     1.54394 255 255 255
-0.123573  0.540031   1.49658 255 255 255
0.152793 0.213144  1.57764 255 255 255
  0.110137 -0.0100601    1.57354 255 255 255
-1.98233 -1.77053  1.94503 255 255 255
-1.98383 -1.70529  1.92654 255 255 255
-0.132575  0.429466   1.53056 255 255 255
-0.0568635   0.500029    1.82513 255 255 255
0.138936 0.212924  1.57842 255 255 255
-1.84402 -2.25665  2.60341 255 255 255
-0.22219 0.486282  1.35342 255 255 255
0.147091 0.236627  1.66918 255 255 255
-1.88038  -1.6987  2.63433 255 255 255
-0.177909  0.455652   1.53319 255 255 255
0.122799 0.220683  1.57484 255 255 255
-0.373962  0.426987   1.26555 255 255 255
0.179661 0.158127  1.64344 255 255 255
0.0919054 0.0105005   1.54041 255 255 255
-0.0256677   0.363443    1.66147 255 255 255
-2.37344 -1.78199  2.89598 255 255 255
   0.144619 -0.00162166     1.68933 255 255 255
-0.085563  0.528614    1.4842 255 255 255
  0.114164 -0.0619659    1.51311 255 255 255
-1.86435  -1.7107  1.99458 255 255 255
 0.154989 0.0117996   1.64042 255 255 255
 0.146552 0.0099881   1.75059 255 255 255
0.175602 0.167768  1.65494 255 255 255
-0.0210017   0.333484    1.69423 255 255 255
0.113478 0.259281   1.7078 255 255 255
  0.143651 0.00391137    1.71227 255 255 255
0.0114257  0.109213   1.51929 255 255 255
0.116954 0.248104  1.60472 255 255 255
  0.210634 -0.0094232    1.72445 255 255 255
0.127052 0.271743  1.66613 255 255 255
  0.167191 -0.0613046    1.63135 255 255 255
   -0.193551 -0.000653784      1.47134 255 255 255
-1.36932 -1.66964   3.1395 255 255 255
 0.154743 -0.013976   1.67994 255 255 255
 0.0842834 -0.0519369    1.50668 255 255 255
0.830846 -1.20486  5.09734 255 255 255
 -0.219933 -0.0919725    1.50221 255 255 255
0.0623437   1.66295   4.74564 255 255 255
-0.0211229   0.494761    1.78764 255 255 255
0.159178 0.201588  1.61797 255 255 255
-0.0486742   0.455212    1.85518 255 255 255
-0.0895438  -0.233137    1.50344 255 255 255
-1.38654 -1.71816  2.95054 255 255 255
-0.0269363    0.46367    1.83613 255 255 255
-0.324199  0.284383   1.55317 255 255 255
0.974523 -1.33677  5.19266 255 255 255
-0.338312  0.326552   1.48028 255 255 255
0.671086  1.62924  4.62344 255 255 255
-0.00410195    0.567934     2.19558 255 255 255
0.0379306   1.73172   5.44043 255 255 255
-2.35776 -1.61577   5.7838 255 255 255
0.153082 0.170669  1.57566 255 255 255
-0.352064  0.159885   1.40399 255 255 255
 0.0595571 -0.0139886    1.50906 255 255 255
-0.170262  0.468803   1.42466 255 255 255
 0.129843 -0.199175    1.5889 255 255 255
0.0972173  0.632261   1.99263 255 255 255
-1.37498 -1.70964  2.98535 255 255 255
-0.377529  0.345557   1.44717 255 255 255
-0.236885  0.448413   1.40125 255 255 255
0.736996  -1.4484  5.15415 255 255 255
-0.134061   1.25675   5.67532 255 255 255
 -0.222523 -0.0794386    1.49332 255 255 255
0.0835116  0.637959   2.03795 255 255 255
0.0593001  0.608608   2.03092 255 255 255
0.416862 -1.29191   5.1888 255 255 255
0.000451844     1.42351     5.62621 255 255 255
0.00934602   0.577901    1.74079 255 255 255
0.647366  1.49154  5.76041 255 255 255
0.0606919   1.20594    5.7285 255 255 255
-0.103921  0.287026   1.52634 255 255 255
0.0210966     0.567   1.84898 255 255 255
-0.0569987   0.859807    5.80615 255 255 255
-0.214812 -0.136396   1.50907 255 255 255
-0.279031   1.48206   5.74687 255 255 255
0.383503  1.48181  5.69147 255 255 255
-0.967061   1.32159   5.93257 255 255 255
-0.328428  0.339938   1.46412 255 255 255
0.751765  1.24226  5.59298 255 255 255
0.0894406 0.0683234   1.51168 255 255 255
-0.0294536    1.44919     5.6521 255 255 255
-2.23691 -1.49533  5.72617 255 255 255
-0.0446566   0.515985    1.74305 255 255 255
0.142284 -1.48113  5.52511 255 255 255
0.0707696 -0.240433   1.53418 255 255 255
-0.153163   0.47496   1.46465 255 255 255
-0.0431822  -0.124723     1.4691 255 255 255
-0.0256238   0.558068    1.66848 255 255 255
0.437316 -1.69847  5.54786 255 255 255
-0.296844  0.352042   1.47387 255 255 255
   0.0849739 -0.000637465       1.5237 255 255 255
 -0.167161 -0.0150638    1.49072 255 255 255
-0.0498241   0.265533     1.5277 255 255 255
-0.0411556  -0.196606    1.49674 255 255 255
-0.107378 -0.266982   1.51259 255 255 255
-0.0115113    1.75576    5.47328 255 255 255
0.410277  1.68903  5.01715 255 255 255
-0.0606814   0.455265    1.85018 255 255 255
-0.0468496   0.452212    1.83438 255 255 255
0.0355469   1.03784   5.77758 255 255 255
-0.273574  0.442134   1.36618 255 255 255
-0.0482642 -0.0808035    1.47645 255 255 255
-0.0194471   0.529426    1.74613 255 255 255
-0.216927  0.440332   1.41416 255 255 255
 -0.10766 -0.126002   1.47435 255 255 255
-0.0551807   0.222621    1.50481 255 255 255
-0.189236   -0.1822   1.49828 255 255 255
 -0.214494 -0.0344461    1.46614 255 255 255
-0.523749   1.35984   5.81695 255 255 255
-0.274701  0.404877    1.4365 255 255 255
-0.06282 0.314772  1.55532 255 255 255
-2.32396 -1.45398  5.67019 255 255 255
-0.307812   1.54137   5.62572 255 255 255
-0.269693  0.401255   1.41778 255 255 255
-0.170233 -0.294576    1.5437 255 255 255
0.0030592 -0.229131   1.51094 255 255 255
0.0161234 -0.236523   1.62691 255 255 255
0.0195376  0.540132   1.85795 255 255 255
0.076091 0.609653  1.91393 255 255 255
-0.287298  0.388763   1.45116 255 255 255
0.0442162  0.597641   1.87017 255 255 255
-1.38203  -1.7601  3.00385 255 255 255
-0.146144 -0.102302   1.49335 255 255 255
-0.503184   1.44722   5.75992 255 255 255
-1.35119 -1.68365  2.92476 255 255 255
-0.0058507   0.564642    1.73811 255 255 255
0.0178756 -0.212945   1.52503 255 255 255
-0.35059 0.380588  1.39346 255 255 255
0.827582 -1.38587  5.13488 255 255 255
-0.0888941   0.174393    1.48934 255 255 255
-0.372188   1.35521    5.7514 255 255 255
-0.0216715   0.504693    1.76846 255 255 255
0.00131325   0.225343    1.50895 255 255 255
0.249654 0.898668  5.68745 255 255 255
0.0148872  0.560713   2.00445 255 255 255
-0.116898  0.257807   1.51754 255 255 255
-0.887548   1.35246   5.81008 255 255 255
0.00411057  -0.131758    1.48734 255 255 255
-2.31317 -1.38031   5.6763 255 255 255
-0.0515807  -0.165295    1.48292 255 255 255
-0.00725559    0.554719     1.73028 255 255 255
-0.353098  0.401705   1.36994 255 255 255
-0.00808154   -0.157344     1.48072 255 255 255
-0.0689121 -0.0589698    1.47697 255 255 255
 -0.177292 -0.0671568    1.46655 255 255 255
0.0944466  0.648734    1.9337 255 255 255
0.0585165 -0.304828   1.62513 255 255 255
-0.062796 -0.158858   1.47576 255 255 255
-0.30855 0.405205  1.38781 255 255 255
-0.351227   1.38884   5.64914 255 255 255
-0.248618  0.416932   1.43801 255 255 255
-0.292002    0.3957   1.40032 255 255 255
0.0523223 -0.304942   1.60798 255 255 255
0.0489242  0.606569   2.04877 255 255 255
  0.184672 -0.0512199    1.66984 255 255 255
-0.0860199   0.287352    1.53943 255 255 255
-0.00202461    0.570311     1.70728 255 255 255
0.0316115 -0.263404   1.55043 255 255 255
-0.345324  0.343983   1.45279 255 255 255
-0.167176  0.412317   1.49391 255 255 255
-0.0960585   0.448733    1.82369 255 255 255
0.0212668 0.0876808   1.72166 255 255 255
  0.090726 -0.0450029     1.5457 255 255 255
0.110281 0.241053  1.63963 255 255 255
0.146356 0.197295  1.59268 255 255 255
  0.0831095 -0.00261836     1.81503 255 255 255
0.0781344   0.24129   1.58624 255 255 255
-0.0100705  -0.245566    1.86502 255 255 255
-0.259016  0.377955   1.46291 255 255 255
   0.2152 0.0984757   1.59475 255 255 255
0.164996 0.114836  1.57164 255 255 255
-0.0160748   0.344384    1.63218 255 255 255
  0.121963 -0.0544701    1.56053 255 255 255
0.0730124  0.178372   1.52627 255 255 255
-0.122934  0.455286   1.84406 255 255 255
-0.198197  0.365587   1.86057 255 255 255
  0.103949 -0.0360695    1.54414 255 255 255
-0.137147  0.435675    1.5557 255 255 255
-0.0766282   0.378082    1.59733 255 255 255
  0.106295 -0.0913547    1.54377 255 255 255
-0.0031304  3.178e-05    1.87568 255 255 255
-0.479928  0.417118   1.21687 255 255 255
0.171271 0.138118  1.58876 255 255 255
0.136782 0.152348  1.68791 255 255 255
0.150449 0.278141  1.59283 255 255 255
0.114811 0.172719  1.55134 255 255 255
0.101112  0.16928  1.54968 255 255 255
 0.157289 0.0870174   1.66913 255 255 255
0.0226264  0.153152   1.82337 255 255 255
 0.195895 0.0831821   1.64216 255 255 255
0.106484 0.300186   1.6595 255 255 255
-0.127827  0.464044   1.95951 255 255 255
0.129668 0.194426  1.55178 255 255 255
-0.0534831   0.224813    1.81749 255 255 255
0.015739 0.321039  1.64464 255 255 255
-0.0551578  0.0455059    1.89261 255 255 255
0.0610872  0.312959   1.62897 255 255 255
-0.0275623   0.340991    1.68123 255 255 255
0.203197 0.103512  1.63518 255 255 255
0.0501287  0.237541    1.7808 255 255 255
-0.219262  0.430928   1.44181 255 255 255
0.122979 0.293941  1.58078 255 255 255
-0.158544  0.435849   1.92874 255 255 255
0.0134388  0.301215   1.57675 255 255 255
-0.100333  0.204456   1.84808 255 255 255
-1.75516 -1.80124  1.88943 255 255 255
-0.419525  0.402102   1.37162 255 255 255
-0.156132  0.352719    1.8374 255 255 255
-0.385683  0.428259   1.27395 255 255 255
-0.0758019   0.323012    1.75569 255 255 255
-0.268648  0.407424   1.45932 255 255 255
 0.168241 0.0842682   1.65158 255 255 255
-0.0868422  -0.255818    1.93689 255 255 255
 0.142578 -0.204713   1.73726 255 255 255
 0.204656 0.0968545   1.56265 255 255 255
0.0107404  0.316151   1.67925 255 255 255
-0.465945  0.411695   1.25912 255 255 255
0.0987034  0.302529   1.59117 255 255 255
 0.109323 -0.219607   1.75942 255 255 255
 0.110553 -0.218678   1.75908 255 255 255
-0.0913913 -0.0222695      1.943 255 255 255
-0.104706  0.068092   1.92037 255 255 255
0.064408 0.133672   1.8118 255 255 255
-0.000447659     0.324438      1.67751 255 255 255
 0.0489521 -0.0422387    1.51094 255 255 255
-0.098885 0.0179021   1.91444 255 255 255
0.0156198 -0.024305   1.50468 255 255 255
 0.0980402 -0.0076367    1.57645 255 255 255
-0.112728  0.310258   1.55239 255 255 255
 -0.141491 -0.0604543    1.93922 255 255 255
 0.0416548 -0.0552295    1.50017 255 255 255
-0.160196  0.417463   1.53359 255 255 255
-0.055525  0.318216   1.77183 255 255 255
0.0522651 0.0850096   1.83823 255 255 255
0.0840315 -0.175897   1.82896 255 255 255
-0.0233447   0.286281    1.75429 255 255 255
0.11819 0.16046 1.53147 255 255 255
-0.143889   0.37013    1.8301 255 255 255
-1.97668 -1.80659  2.49937 255 255 255
0.0286286  0.299966   1.71705 255 255 255
-0.429398  0.432743   1.25394 255 255 255
-0.237235  0.384263   1.48928 255 255 255
-2.34006  -1.8466  2.75059 255 255 255
-0.166577  0.453723   2.02012 255 255 255
0.097401 0.220662  1.53518 255 255 255
-0.143274  0.446388   1.55894 255 255 255
0.0356759 -0.131271   1.87196 255 255 255
0.0727018  -0.15255   1.84474 255 255 255
0.0506346 -0.311189   1.63075 255 255 255
   0.144661 -0.00464505     1.70952 255 255 255
0.133902 0.281722  1.56483 255 255 255
-2.32376 -1.92689  2.77323 255 255 255
-0.21266 0.375506  1.89823 255 255 255
0.0745205  0.247761   1.75401 255 255 255
-0.309517  0.387418   1.45883 255 255 255
0.116651  0.25838  1.70216 255 255 255
0.137808 0.285056  1.64912 255 255 255
 -0.089168 0.00328605    1.91865 255 255 255
 0.13539 0.118642  1.55933 255 255 255
-1.85446 -1.86947  2.55597 255 255 255
 0.12829 0.246754  1.69926 255 255 255
-0.0604916   0.410817     1.6624 255 255 255
-0.053272   0.34924   1.59882 255 255 255
-0.0409812    0.31543    1.74401 255 255 255
0.126173 0.292586  1.66247 255 255 255
0.0465127 -0.175309   1.85778 255 255 255
-0.452228  0.421254    1.2071 255 255 255
 -1.4632 -1.78447  2.85519 255 255 255
0.100441 0.245585  1.73201 255 255 255
0.141959  0.22205   1.5851 255 255 255
-1.86024 -1.82106  2.57231 255 255 255
  0.0463298 0.000832566       1.853 255 255 255
0.142545 0.281063  1.59347 255 255 255
-1.48797 -1.72235  2.88745 255 255 255
-0.0633489   0.324631    1.76004 255 255 255
 -0.0736848 -0.00785626     1.92519 255 255 255
0.0269643  0.317347   1.61047 255 255 255
 0.01512 0.321842  1.64264 255 255 255
-0.350756  0.385959   1.40584 255 255 255
0.147521 0.236865  1.64871 255 255 255
-0.0933947   0.463103    1.65876 255 255 255
-1.87998 -2.17192  2.67491 255 255 255
 0.102429 -0.199011   1.78878 255 255 255
-1.99502 -2.27103  2.59208 255 255 255
-0.0345494   0.341612    1.61543 255 255 255
-1.82708 -1.99971  2.01108 255 255 255
0.143542 0.237887  1.67026 255 255 255
  0.138478 -0.0585669    1.55463 255 255 255
0.0903888  0.227703   1.75289 255 255 255
-0.0259229   0.332832    1.60501 255 255 255
-0.0404494    0.33363    1.72208 255 255 255
0.0644246 -0.279779   1.58195 255 255 255
-1.34962  -1.5515  2.98676 255 255 255
0.100059  0.20478  1.75357 255 255 255
-0.356785  0.406829   1.38609 255 255 255
0.0646988  0.162779   1.50607 255 255 255
0.0774063  0.172791   1.78828 255 255 255
-0.18814 0.390865  1.88102 255 255 255
-1.92812 -1.85169  1.84017 255 255 255
 0.153357 0.0219921   1.73746 255 255 255
   0.16515 -0.0410921    1.60284 255 255 255
-2.38235 -1.87915  2.70477 255 255 255
-0.0364931   0.303622    1.73886 255 255 255
 0.10364 0.254196  1.72125 255 255 255
-1.87135 -2.18523  2.62792 255 255 255
0.0613907  0.304547   1.58926 255 255 255
-0.45014 0.412261  1.20526 255 255 255
-1.77841 -1.87694  2.01701 255 255 255
   0.16455 -0.0107386    1.73868 255 255 255
0.129787 0.237899  1.71518 255 255 255
-0.120809 -0.316708   1.91007 255 255 255
-0.194505  0.414172   1.48344 255 255 255
0.0366605  0.548375   1.84858 255 255 255
-0.147396  0.501992   1.42361 255 255 255
-0.189626  -0.41007    1.7891 255 255 255
-0.187817 -0.251549   1.52893 255 255 255
 0.109155 -0.233864   1.59919 255 255 255
0.426029 0.398737  2.46147 255 255 255
-0.0282127   0.349898    1.66328 255 255 255
-0.369579  0.288848   1.52811 255 255 255
0.718929 -1.45649  5.30952 255 255 255
-0.387447  0.351053   1.42122 255 255 255
-0.231949 0.0414296   1.51476 255 255 255
-0.274744  0.437165    1.3856 255 255 255
 -0.25416 -0.327307   1.61945 255 255 255
-0.338753  0.450108   1.22091 255 255 255
-0.0232468   0.607958    1.54541 255 255 255
-0.345294  0.449721   1.25195 255 255 255
-0.38223 0.328802  1.44326 255 255 255
-0.376008  0.344519   1.45448 255 255 255
-0.0119615   0.557258    1.69918 255 255 255
-0.26672 0.467172  1.32604 255 255 255
-0.341309   0.44666   1.26703 255 255 255
1.50824 1.37055 4.84378 255 255 255
-0.386402  0.443627   1.24589 255 255 255
-0.0229286   0.601533    1.58587 255 255 255
-0.401388  0.406205   1.35474 255 255 255
-0.290833  0.431531   1.32532 255 255 255
-0.417755  0.336458   1.52099 255 255 255
0.902145   1.7534  4.52655 255 255 255
 -0.265384 -0.0434607    1.51664 255 255 255
-0.463892 0.0757061   2.18825 255 255 255
-0.0743563   0.476584    1.65736 255 255 255
 0.108808 -0.207075   1.55885 255 255 255
-0.350819  0.410085   1.34799 255 255 255
-0.0431949   0.573596    1.57478 255 255 255
