ply
format ascii 1.0
element vertex 693
property float x
property float y
property float z
property uchar red
property uchar green
property uchar blue
end_header
 0.000121172 -0.000344829  0.000849625 0 255 0
   0.26668 -0.0322309  0.0309845 0 255 0
0.931747 0.157743 0.326979 0 255 0
 0.271616 -0.858179    3.2418 255 255 255
 0.336696 -0.762962   3.19925 255 255 255
-0.186089 0.0410272   1.65866 255 255 255
-0.0379473 -0.0167051    1.66609 255 255 255
 0.322343 -0.834275   3.22388 255 255 255
 0.501494 -0.699621   3.19841 255 255 255
 -0.163374 -0.0830425    1.66141 255 255 255
 -0.157097 -0.0145286    1.65948 255 255 255
 -0.190331 -0.0834082    1.65601 255 255 255
 0.417723 -0.683337   3.18619 255 255 255
 0.326627 -0.712394   3.15783 255 255 255
-0.338674  0.419146   1.60996 255 255 255
-0.208621 0.0189105   1.64452 255 255 255
 0.182779 -0.763745   3.14922 255 255 255
0.463971 -0.75828  3.22007 255 255 255
-0.203549   0.45775    1.6583 255 255 255
-0.151069  0.507403   1.68817 255 255 255
0.226031 0.101335  1.77504 255 255 255
  0.53902 -0.760734   3.21058 255 255 255
 -0.161255 -0.0445857    1.66285 255 255 255
-0.157957 0.0591693   1.66752 255 255 255
-0.172752  0.508975   1.67512 255 255 255
 0.588333 -0.779739   3.22039 255 255 255
0.552264 -0.73106  3.19737 255 255 255
 0.201712 -0.719257   3.14251 255 255 255
 0.493143 -0.776565   3.19299 255 255 255
 0.303826 -0.869924   3.19647 255 255 255
-0.207225 -0.317132   1.68701 255 255 255
-0.0917302   0.227569     1.6937 255 255 255
 0.509102 -0.739063   3.17712 255 255 255
 0.17177 -0.71059  3.16309 255 255 255
0.0646445 -0.168585   1.70012 255 255 255
-0.155827 -0.306961   1.67943 255 255 255
 0.578081 -0.739778   3.21265 255 255 255
 0.504945 -0.697234   3.17883 255 255 255
-0.0848416 -0.0178539    1.66477 255 255 255
 0.523173 -0.811367    3.2091 255 255 255
 -0.10743 -0.150557   1.66038 255 255 255
 0.365098 -0.740353   3.19171 255 255 255
-0.204546  0.451543   1.66879 255 255 255
 0.466645 -0.731779   3.19155 255 255 255
 0.216132 -0.771789   3.14697 255 255 255
 0.216848 -0.864344   3.14703 255 255 255
 0.486025 -0.815791   3.19709 255 255 255
-0.225751  0.445289   1.65542 255 255 255
0.502186 -0.81633  3.20208 255 255 255
 0.569433 -0.835517    3.2226 255 255 255
  0.34257 -0.686881   3.15961 255 255 255
 0.204221 -0.661772   3.13905 255 255 255
-0.089756 0.0183363   1.66227 255 255 255
0.237234 -0.77814   3.1518 255 255 255
0.0199365  0.142129   1.68422 255 255 255
 0.217985 -0.714767   3.14259 255 255 255
 0.563414 -0.749806   3.20302 255 255 255
-0.0892683 -0.0665297    1.66662 255 255 255
  0.53371 -0.737713   3.19709 255 255 255
 0.539468 -0.780424   3.20374 255 255 255
-0.111053 -0.139603   1.66584 255 255 255
0.497954  -0.7139  3.19986 255 255 255
 0.268266 -0.746057   3.13961 255 255 255
 0.471435 -0.730965    3.1917 255 255 255
 0.199267 -0.782219   3.14358 255 255 255
 0.466556 -0.674118   3.17594 255 255 255
0.301449 -0.90946  3.30023 255 255 255
 0.202871 -0.747277   3.16142 255 255 255
 0.243133 -0.870698   3.17157 255 255 255
-0.0253114  -0.282803    1.68748 255 255 255
-0.315053  0.482563   1.56864 255 255 255
0.480669  -0.7684  3.21545 255 255 255
-0.128929  0.526309   1.70579 255 255 255
  0.092709 -0.0424464    1.72156 255 255 255
  0.108874 -0.0316039    1.73627 255 255 255
  0.130794 -0.0430712    1.75991 255 255 255
0.175295 0.186888  1.77348 255 255 255
-0.135933  0.589033   1.66017 255 255 255
-0.123942 -0.332096   1.83666 255 255 255
-0.277495  0.326816   1.67011 255 255 255
-0.0790994   0.288625    1.75062 255 255 255
0.0582883 -0.335397   1.71302 255 255 255
0.00373088  -0.132129    1.68231 255 255 255
 0.0833368 -0.0942805    1.69319 255 255 255
-0.361562  0.537041   1.48829 255 255 255
-0.26966 0.576774  1.46427 255 255 255
 0.06055 0.254519  1.70807 255 255 255
 0.419167 -0.816923   3.20739 255 255 255
 0.0496778 -0.0422162    1.69042 255 255 255
 -0.187605 -0.0097307    1.65719 255 255 255
 0.250265 0.0839728   1.78828 255 255 255
-0.814475 -0.705916   3.10149 255 255 255
-0.190031 0.0861222   1.68376 255 255 255
-0.245553  0.524685   1.58863 255 255 255
-0.401269  0.416615   1.57781 255 255 255
-0.399869  0.550867    1.4727 255 255 255
 0.165542 0.0884115   1.76789 255 255 255
0.615726  1.06382  3.01217 255 255 255
0.434596  1.00437  3.00855 255 255 255
 0.48978 0.873021  2.99989 255 255 255
-0.449214   0.46081   1.54058 255 255 255
 -0.213735 -0.0647377    1.64727 255 255 255
-0.295738  0.483123   1.59962 255 255 255
 0.464152 -0.659992   3.20051 255 255 255
  0.142744 -0.0610388    1.75079 255 255 255
0.206036 0.163647  1.77273 255 255 255
-0.206235  0.517074   1.64651 255 255 255
-0.41684 0.406254  1.55608 255 255 255
0.0450098  0.316164   1.75862 255 255 255
-0.749553   -0.7195   3.09381 255 255 255
  0.184422 -0.0038209    1.77936 255 255 255
   0.185269 -0.00414726     1.76128 255 255 255
-0.417213   0.37699   1.60202 255 255 255
-0.0759777   0.629497    1.66766 255 255 255
-0.00704616   -0.281958     1.69165 255 255 255
-0.258245  0.510874   1.60625 255 255 255
0.128525 0.149672  1.71549 255 255 255
 0.0947785 -0.0429654    1.70837 255 255 255
-0.405577  0.449382   1.56915 255 255 255
 0.154967 -0.267229   1.79033 255 255 255
-0.885789 -0.682828   3.10469 255 255 255
-0.0132459   0.560788    1.87456 255 255 255
-0.114053 0.0206245   1.66647 255 255 255
-0.393092  0.437588   1.53883 255 255 255
 -0.167885 0.00904166    1.65425 255 255 255
 0.280293 -0.686015   3.16036 255 255 255
-0.170671 -0.299032   1.68108 255 255 255
-0.0211001  -0.311933    1.70431 255 255 255
0.579054  1.11911  3.00386 255 255 255
-0.198878  0.534563   1.61563 255 255 255
-0.447635  0.384242   1.62827 255 255 255
  0.222037 -0.0919985    1.85626 255 255 255
-0.168647  0.491375   1.67801 255 255 255
 -0.254105 -0.0912669    1.64412 255 255 255
-0.354353  0.456681   1.54778 255 255 255
-0.00169288    0.533644     1.88005 255 255 255
-0.209756  0.547646    1.5838 255 255 255
-0.0247744   0.577894    1.83317 255 255 255
0.469093 0.937329  2.98279 255 255 255
-0.112013 -0.241697   1.66785 255 255 255
-0.164213  0.570764    1.6099 255 255 255
-0.362221  0.360433   1.63189 255 255 255
0.56499  1.0277 3.00134 255 255 255
-0.0151405    0.59345    1.79606 255 255 255
0.626542 0.770841  3.17278 255 255 255
0.219456 0.127926  1.79515 255 255 255
 0.61251 0.737595  3.17492 255 255 255
0.599544 0.678903  3.19494 255 255 255
-0.0943016   0.645661    1.63612 255 255 255
-0.415999  0.483777   1.54174 255 255 255
-0.152256  0.508303   1.68938 255 255 255
-0.0403951  -0.279445    1.68727 255 255 255
 0.500611 -0.652564   3.16557 255 255 255
-0.364478  0.570598   1.44508 255 255 255
-0.314226  0.591753   1.47912 255 255 255
0.399156  1.17887  2.95819 255 255 255
0.548518 0.802003  3.16538 255 255 255
-0.0261567   0.634391    1.74222 255 255 255
-0.863064 -0.644077   3.09654 255 255 255
-0.0701043 -0.0597752    1.66642 255 255 255
0.651875 0.435756  3.20496 255 255 255
-0.389142  0.446979   1.57597 255 255 255
-0.195678   -0.3374   1.70447 255 255 255
-0.028169  0.637388   1.79006 255 255 255
-0.0250043   0.547372    1.88497 255 255 255
0.623474 0.583321  3.18645 255 255 255
0.0793829 -0.168846   1.70931 255 255 255
 0.310121 -0.905457   3.20101 255 255 255
-0.711802 -0.707351   3.09448 255 255 255
 -0.92048 -0.709205   3.10505 255 255 255
 -0.220932 0.00100965    1.64955 255 255 255
-0.415219  0.357363   1.65253 255 255 255
-0.205703  0.558136   1.56367 255 255 255
-0.438904  0.482585   1.52009 255 255 255
   0.482 0.919745   3.0084 255 255 255
0.461671  1.09816   2.9779 255 255 255
0.478514 0.417631  3.15961 255 255 255
-0.426881  0.535609   1.45083 255 255 255
-0.273225   0.59982   1.48943 255 255 255
-0.0647574   0.626811    1.69051 255 255 255
-0.0715165  -0.261018    1.67081 255 255 255
-0.220096  0.516552   1.61524 255 255 255
 -0.178445 -0.0221806    1.66555 255 255 255
-0.325067  0.571052    1.4852 255 255 255
-0.464533  0.441053   1.55548 255 255 255
-0.91101 0.338213  3.23376 255 255 255
-0.00130861    -0.25177      1.6794 255 255 255
0.00539954   0.565825    1.89352 255 255 255
0.187656 0.103021  1.77822 255 255 255
-0.361596  0.553645   1.48372 255 255 255
-0.135463  -0.29719   1.67349 255 255 255
-0.149335  0.485618   1.68213 255 255 255
-0.0126491   0.525895    1.89945 255 255 255
-0.438648  0.484601   1.48461 255 255 255
0.463235  1.07871  2.99306 255 255 255
-0.37504 0.378667  1.64732 255 255 255
-0.429122  0.482709   1.53538 255 255 255
-0.28623 0.495897  1.56477 255 255 255
-0.395047   0.38652   1.62771 255 255 255
-0.0968654   0.617991     1.6605 255 255 255
-0.263603 -0.106529   1.64547 255 255 255
-0.0370461   0.631415    1.76594 255 255 255
0.377226  1.18554  2.94841 255 255 255
-0.0298266     0.5255    1.85775 255 255 255
-0.149561  0.186277   1.68101 255 255 255
-0.373391  0.493501    1.5578 255 255 255
0.566272 0.506192   3.2005 255 255 255
0.388695  0.71892  3.15058 255 255 255
-0.881819  -0.62385   3.10827 255 255 255
 -0.23611 -0.310268      1.69 255 255 255
-0.385082  0.513197   1.49615 255 255 255
-0.941032 -0.694947   3.11726 255 255 255
-0.208918  0.539811   1.60493 255 255 255
0.645507 0.685514  3.18614 255 255 255
-0.716868 -0.681037    3.0954 255 255 255
 0.643507 -0.688678   3.20151 255 255 255
0.487164 0.495963  3.18351 255 255 255
-0.195082  0.605086    1.5667 255 255 255
0.642852 0.459364  3.20333 255 255 255
0.448072  1.09419  3.02936 255 255 255
0.535935 0.719077  3.18193 255 255 255
0.543267 0.766302  3.16081 255 255 255
  -0.18974 -0.0297593    1.67119 255 255 255
 0.403738 -0.669411   3.19992 255 255 255
-0.207225 -0.317132   1.68701 255 255 255
 0.49319 0.964602   2.9825 255 255 255
-0.356989  0.585679   1.46684 255 255 255
-0.0175967  -0.250296    1.67582 255 255 255
-0.0220306   -0.13348    1.67688 255 255 255
-0.165376  0.619903   1.57026 255 255 255
0.0922586  0.665592   1.85831 255 255 255
0.344077 0.296384  1.48729 255 255 255
-0.433586  0.537989   1.44389 255 255 255
-0.212912  0.540009   1.58872 255 255 255
0.590139  1.01952  3.00985 255 255 255
    0.13795 -0.00481954     1.78605 255 255 255
0.602476  0.64564  3.17166 255 255 255
-0.0220678  -0.205941    1.66737 255 255 255
-0.25849 0.589757   1.5095 255 255 255
0.0724047  0.646005   1.94029 255 255 255
0.525534 0.462416  3.17294 255 255 255
-0.240757  0.520015   1.58846 255 255 255
0.511661  1.08431  2.99085 255 255 255
0.560863 0.688976  3.17944 255 255 255
-0.331669  0.450356   1.56768 255 255 255
0.496774  1.02309  2.99791 255 255 255
0.496408  1.09338  2.99374 255 255 255
0.489776 0.565576   3.1542 255 255 255
0.599063 0.758613  3.17834 255 255 255
-0.0512207   0.661176     1.6773 255 255 255
-0.00769174    0.601008     1.85566 255 255 255
0.389865 0.788465  3.14336 255 255 255
  0.119155 -0.0428093    1.73701 255 255 255
0.659131  0.69637  3.17089 255 255 255
0.485192 0.594283  3.13523 255 255 255
0.0641636  0.301282   1.73533 255 255 255
-0.184444  0.527791   1.65082 255 255 255
-0.330946  0.564447   1.47344 255 255 255
-0.758854 -0.648242   3.07131 255 255 255
0.621574 0.480095  3.19858 255 255 255
0.427403  1.19843  2.92843 255 255 255
0.0329925  0.590032   1.92621 255 255 255
0.593821 0.754664  2.93849 255 255 255
-0.734828 -0.669478   3.08488 255 255 255
0.655085 0.752071  3.17033 255 255 255
-0.248299  0.593538   1.51758 255 255 255
-0.378366  0.364012    1.6258 255 255 255
0.518397 0.692445  3.18483 255 255 255
-0.275659  0.497271   1.61225 255 255 255
-0.30266 0.513411  1.56768 255 255 255
-0.096848 -0.148935    1.6603 255 255 255
0.477471   1.0942  2.99635 255 255 255
0.622904 0.430147   3.2108 255 255 255
0.0549501 -0.290599   1.71739 255 255 255
0.0234711  0.531154   1.89976 255 255 255
-0.363353  0.462571   1.54141 255 255 255
0.473059 0.454914  3.16933 255 255 255
-0.0878803 -0.0871229    1.66915 255 255 255
-0.353558  0.437133   1.56294 255 255 255
0.533236   1.0243  2.98648 255 255 255
-0.904516 -0.706372   3.12769 255 255 255
 -0.19224 -0.258154   1.66845 255 255 255
 0.263281 -0.641215   3.10697 255 255 255
-0.202753 -0.299085    1.6796 255 255 255
-0.365808  0.563236   1.47787 255 255 255
-0.770978 -0.693244   3.09384 255 255 255
-0.0834689   0.217798    1.68296 255 255 255
0.107884 0.659743   3.1369 255 255 255
0.315958 0.654874  3.15874 255 255 255
0.575208 0.330012  3.31757 255 255 255
-0.0359663   0.683963     1.6807 255 255 255
-0.0812922  -0.253539    1.66174 255 255 255
0.279187 0.753039  3.17546 255 255 255
-0.426446  0.405097   1.57377 255 255 255
-0.863043 -0.708968   3.11167 255 255 255
-0.133411 -0.263792    1.6666 255 255 255
-0.46703 0.418084  1.59044 255 255 255
-0.285005 -0.221646   1.69612 255 255 255
0.0605955  0.639101   1.92497 255 255 255
-0.264584  0.603344   1.49671 255 255 255
  0.167547 -0.0558306    1.76676 255 255 255
-0.842338 -0.671451   3.09709 255 255 255
-0.371106  0.503198    1.5515 255 255 255
 0.150888 -0.816114   3.16289 255 255 255
-0.890394  -0.65577   3.11356 255 255 255
-0.156935 -0.119295   1.66763 255 255 255
0.546612  1.07615  2.99758 255 255 255
-0.170446 -0.130272    1.6652 255 255 255
-0.386823  0.374149   1.63605 255 255 255
-0.230249   0.42766   1.66183 255 255 255
0.22674 0.67881 3.16573 255 255 255
0.0354742 -0.185293   1.69124 255 255 255
-0.0429072  -0.202656    1.67063 255 255 255
-0.857898  -0.67465   3.09753 255 255 255
-0.245282  0.514496   1.60345 255 255 255
0.333559     0.87  3.02583 255 255 255
0.597722 0.962382  3.00652 255 255 255
-0.358945  0.564004   1.48102 255 255 255
-0.304239  0.469301   1.57895 255 255 255
-0.17061 0.522044  1.65961 255 255 255
  0.110117 -0.0949768    1.70218 255 255 255
-0.128878  0.111335   1.66865 255 255 255
-0.284849  0.434027   1.63206 255 255 255
0.178248 0.135407  1.75251 255 255 255
-0.368602  0.510339   1.54304 255 255 255
0.544533 0.625928  3.17367 255 255 255
0.539983   0.7414  3.20251 255 255 255
-0.0938006  -0.289932    1.67679 255 255 255
-0.0880349   0.505022    1.77507 255 255 255
0.630344 0.545486  3.16486 255 255 255
-0.418826  0.492798   1.49258 255 255 255
-0.31344 0.589899  1.48314 255 255 255
-0.423788  0.490108   1.48658 255 255 255
-0.434213   0.54864   1.43349 255 255 255
-0.218672  0.428359   1.65988 255 255 255
0.211885 0.673419  3.15292 255 255 255
-0.232055 -0.320928   1.68996 255 255 255
-0.877921 -0.668652   3.11592 255 255 255
 -0.035613 -0.0787617    1.66987 255 255 255
-0.0652878  -0.200482    1.66526 255 255 255
-0.288901   0.53469   1.49726 255 255 255
-0.276607  0.606332    1.4939 255 255 255
 0.17177 -0.71059  3.16309 255 255 255
-0.473754  0.421122   1.57781 255 255 255
-0.0131631   0.540834    1.82836 255 255 255
-0.861153 -0.568056   3.09846 255 255 255
0.416397 0.436328  3.17042 255 255 255
-0.367658   0.49704   1.52474 255 255 255
0.415338 0.692047   3.1608 255 255 255
-0.311824  0.488261   1.55616 255 255 255
-0.269922  0.607937   1.49595 255 255 255
0.238626 0.470518  2.14819 255 255 255
-0.395289  0.422978   1.55926 255 255 255
-0.835304 -0.614183   3.09856 255 255 255
0.510697 0.803098  3.16371 255 255 255
-0.174183  0.544917   1.64836 255 255 255
-0.35425 0.557061  1.48999 255 255 255
-0.0539166   0.230252    1.69138 255 255 255
-0.169066 -0.248466   1.66352 255 255 255
0.183142 0.122295  1.78585 255 255 255
0.0225695 -0.309336   1.71568 255 255 255
 0.610214 -0.735889   3.22592 255 255 255
-0.473931  0.413002   1.60284 255 255 255
0.184418 0.187292  1.76419 255 255 255
-0.337727  0.584652   1.47106 255 255 255
-0.415355  0.536137   1.46013 255 255 255
-0.0244756   0.560541    1.84141 255 255 255
-0.221892 -0.241007    1.6664 255 255 255
-0.00351642    0.192293     1.68189 255 255 255
 0.18861 0.183058   1.7767 255 255 255
0.385134 0.641969  3.15701 255 255 255
-0.261971 -0.172867   1.68255 255 255 255
0.578472 0.575388   3.2176 255 255 255
-0.0952391   0.651769    1.63015 255 255 255
0.529279  1.01453   2.9992 255 255 255
-0.338708  0.466543   1.58418 255 255 255
  0.4416 0.413899  3.19102 255 255 255
-0.316093  0.501172    1.5523 255 255 255
-0.33969 0.588473  1.46246 255 255 255
-0.456269  0.420127   1.57922 255 255 255
-0.773396 -0.633429   3.08588 255 255 255
-0.875729 -0.594177   3.10652 255 255 255
-0.283413 -0.148686   1.68728 255 255 255
0.185231 0.724123  3.16345 255 255 255
0.0170004  0.623358   1.84645 255 255 255
-0.273446 -0.156749   1.69456 255 255 255
0.589927   1.1552  2.96875 255 255 255
-0.437547  0.486186   1.50715 255 255 255
0.172064 0.720271  3.14033 255 255 255
-0.136766  0.558057    1.6629 255 255 255
-0.770119  -0.71875   3.08525 255 255 255
-0.0969404  0.0547693    1.66232 255 255 255
0.610332 0.616691  3.18961 255 255 255
-0.377546   0.37594   1.60537 255 255 255
0.507249  1.00926  2.98938 255 255 255
-0.263206   0.59452   1.49836 255 255 255
-0.132751  0.281354   1.69953 255 255 255
0.454749 0.477171  3.15912 255 255 255
0.580519  0.75082  3.15802 255 255 255
0.00522229   0.570166    1.83068 255 255 255
0.558429 0.753841  3.18718 255 255 255
-0.899174 -0.663867   3.08415 255 255 255
0.629701 0.468688  3.22883 255 255 255
0.667508 0.473679   3.2223 255 255 255
0.410933 0.664396  3.13658 255 255 255
-0.750085 -0.718383   3.09442 255 255 255
 0.612724 -0.790226   3.23632 255 255 255
 0.022112 -0.228454   1.68223 255 255 255
0.0538141 -0.272402   1.70873 255 255 255
-0.929941 -0.573096   3.09013 255 255 255
-0.139346   0.56486   1.65883 255 255 255
0.0293967  0.687671   1.75718 255 255 255
-0.236785 -0.133325   1.67524 255 255 255
-0.379624  0.467944   1.56183 255 255 255
0.17548 0.11588 1.75631 255 255 255
-0.235412  0.445009   1.65299 255 255 255
-0.190755  0.526613   1.64037 255 255 255
 0.642711 -0.689772   3.22317 255 255 255
 -0.106192 -0.0492858    1.66431 255 255 255
-0.00418611    0.624831     1.84249 255 255 255
-0.194153 -0.264366   1.67157 255 255 255
-0.418425  0.529075   1.47643 255 255 255
-0.464842   0.46747   1.53337 255 255 255
-0.288578  0.482072   1.59896 255 255 255
0.0158158  0.298013   1.73399 255 255 255
-0.635205  -0.73288   3.10839 255 255 255
-0.0935762   0.346051    1.72772 255 255 255
-0.939994 -0.653654   3.11197 255 255 255
0.667004 0.757006  3.16049 255 255 255
 0.221255 -0.742978    3.1761 255 255 255
-0.171989   0.62814   1.55998 255 255 255
-0.0514215   0.196314    1.67578 255 255 255
-0.144756   0.60907   1.60665 255 255 255
-0.747743 -0.700051     3.085 255 255 255
-0.883676 -0.576578   3.10263 255 255 255
0.229222 0.622612   3.1491 255 255 255
-0.799389 -0.567873   3.09551 255 255 255
0.348009 0.762301  3.13348 255 255 255
-0.394199   0.42457   1.60974 255 255 255
0.445521 0.469498   3.1583 255 255 255
0.108433 0.680754  3.17088 255 255 255
-0.308526  -0.14895   1.70128 255 255 255
0.401576   1.2006  2.93352 255 255 255
-0.217912  0.438372   1.66701 255 255 255
-0.0351874   0.130349     1.6676 255 255 255
-0.361268  0.575523   1.46425 255 255 255
-0.361288  0.505476   1.55669 255 255 255
-0.0288193    0.67134    1.69288 255 255 255
0.386954  1.19625  2.93728 255 255 255
-0.110023  0.166628   1.67815 255 255 255
0.627636  1.06074  2.99471 255 255 255
0.458782  0.63305   3.1662 255 255 255
-0.308057  0.481508   1.58834 255 255 255
-0.0122223   0.590686    1.80039 255 255 255
 -0.1683 0.538264  1.65256 255 255 255
-0.114589  0.236382   1.69453 255 255 255
-0.886369 -0.608159   3.10148 255 255 255
-0.136599 -0.119435   1.66328 255 255 255
 -0.321697 -0.0844958    1.70914 255 255 255
0.448756  1.18297  2.95064 255 255 255
-0.0767905  0.0713967    1.66468 255 255 255
-0.366999  0.574402   1.46716 255 255 255
-0.462103  0.363808   1.64923 255 255 255
 0.217254 -0.750301   3.16421 255 255 255
-0.912808 -0.620337   3.11607 255 255 255
 0.205691 -0.691491   3.14844 255 255 255
 -0.100262 -0.0741683    1.66635 255 255 255
-0.118105 -0.178431   1.66209 255 255 255
-0.188332  0.458406   1.67105 255 255 255
0.539881  0.60936  3.16267 255 255 255
0.552862  1.10033  2.99287 255 255 255
-0.0253958   0.172821     1.6776 255 255 255
  0.199424 -0.0105217    1.78184 255 255 255
-0.0879973  -0.274962    1.66601 255 255 255
-0.151308 -0.251463   1.65895 255 255 255
-0.0859123   0.664326    1.62634 255 255 255
0.0966758  0.268517   1.72402 255 255 255
-0.0442425   0.198079    1.67436 255 255 255
0.610572  1.08379  3.04264 255 255 255
 0.568762 -0.720299   3.19888 255 255 255
-0.394417  0.365305   1.65284 255 255 255
-0.357297  0.466544   1.54375 255 255 255
-0.121007  0.615985   1.66402 255 255 255
-0.0737687   0.257783    1.69519 255 255 255
0.676681  0.71909  3.07795 255 255 255
-0.0599207   0.667641    1.65953 255 255 255
-0.136177  0.575538   1.66632 255 255 255
-0.288068  0.591553   1.49743 255 255 255
-0.408218  0.424334   1.54029 255 255 255
 -0.22362 -0.134803   1.67229 255 255 255
-0.280593   0.50002   1.57428 255 255 255
-0.0695592   0.120057    1.66152 255 255 255
-0.0423138   0.569645    1.83851 255 255 255
0.586136  1.10233   2.9866 255 255 255
-0.692262 -0.682511   3.08839 255 255 255
-0.428432  0.470113   1.54383 255 255 255
-0.0443266   0.555434    1.80241 255 255 255
-0.0341027  -0.203348    1.66377 255 255 255
-0.366097  0.491448    1.5603 255 255 255
-0.665129 -0.724879   3.08302 255 255 255
-0.312734  0.504671   1.57206 255 255 255
0.547677 0.510019  3.18028 255 255 255
-0.172036  0.618377   1.56489 255 255 255
0.463465  1.17692  2.94654 255 255 255
-0.248828  0.539653   1.57314 255 255 255
0.514265 0.609653  3.18263 255 255 255
 0.203287 -0.763289   3.14471 255 255 255
-0.678344  -0.72081   3.09366 255 255 255
-0.309776  0.463353   1.57856 255 255 255
-0.120701 -0.224982   1.66222 255 255 255
-0.354638  0.379813    1.6242 255 255 255
-0.266881  0.513008   1.57149 255 255 255
-0.195971  -0.27046   1.66961 255 255 255
-0.396328  0.359889   1.65719 255 255 255
-0.234808  0.441635   1.66121 255 255 255
0.0486432  0.146778   1.69573 255 255 255
 0.0475353 -0.0430284    1.69391 255 255 255
 0.225854 -0.662833   3.11599 255 255 255
-0.186163  0.558106   1.61966 255 255 255
-0.00371659    0.528394     1.91926 255 255 255
  0.24711 -0.695978   3.15008 255 255 255
-0.371479  0.433742   1.56365 255 255 255
-0.19856 0.499839  1.65306 255 255 255
-0.198478  0.499839   1.65297 255 255 255
-0.326019   0.58555   1.46714 255 255 255
-0.196356  0.550802   1.59805 255 255 255
0.099998 0.630793  2.03276 255 255 255
-0.191749  0.490642   1.66419 255 255 255
 -0.11854 -0.108682   1.66717 255 255 255
0.00858491    0.54014    1.92979 255 255 255
-0.37636 0.438541  1.54548 255 255 255
-0.0821963   0.585974    1.74136 255 255 255
-0.218967 -0.412082   1.78446 255 255 255
0.0395781  0.703935   3.16151 255 255 255
0.0464089  0.550719   2.00859 255 255 255
0.146649 0.464929  3.18714 255 255 255
0.0528884  0.646098   1.93735 255 255 255
-0.105053  0.532448   1.74616 255 255 255
0.143838 0.571567  3.19201 255 255 255
 0.201712 -0.719257   3.14251 255 255 255
-0.06899 0.679475  3.14101 255 255 255
0.0289717  0.682183   3.15637 255 255 255
-0.257035 -0.402309   1.76822 255 255 255
-0.120363  0.596749   1.68607 255 255 255
0.122075  0.76779  3.18406 255 255 255
0.048246 0.684899  3.16164 255 255 255
-0.00732465    0.579309     1.86286 255 255 255
-0.0410292     0.5811    1.81877 255 255 255
0.0480931  0.627201    3.1713 255 255 255
0.0158051  0.673064   3.16019 255 255 255
0.0205204  0.644115   1.85771 255 255 255
-0.00982003    0.628009      1.8373 255 255 255
 -0.195092 0.00730819    1.65092 255 255 255
-0.127338  0.585373   1.68309 255 255 255
-0.149172  0.558516    1.6735 255 255 255
0.195441 0.106509  1.79066 255 255 255
-0.059558 0.0903786   1.66541 255 255 255
-0.377166  0.414549   1.58982 255 255 255
0.0828899  0.703744   3.17478 255 255 255
-0.271876  0.526897   1.55502 255 255 255
-0.0711527   0.531742    1.81235 255 255 255
-0.0887125  -0.231607    1.66473 255 255 255
-0.129181  0.586233   1.67175 255 255 255
-0.0740511  0.0966421    1.66862 255 255 255
-0.0989005   0.282303      1.711 255 255 255
-0.12516 0.578639  1.69283 255 255 255
-0.128878  0.111335   1.66865 255 255 255
0.0248299 -0.260616   1.70247 255 255 255
0.0496303  0.637636   1.93279 255 255 255
-0.100872 -0.161473   1.66478 255 255 255
-0.0830548   0.352467    1.73367 255 255 255
-0.0884682 -0.0885144    1.67157 255 255 255
-0.147411  0.569015   1.66518 255 255 255
-0.113659  0.534707   1.72966 255 255 255
-0.00381258    0.137947     1.67676 255 255 255
-0.0468357   0.442969    1.98457 255 255 255
-0.184116  0.606433   1.58477 255 255 255
 0.050905 -0.386115   1.80434 255 255 255
-0.223107   0.31372   1.66652 255 255 255
-0.135959  0.583997   1.66853 255 255 255
0.142715 0.902126  3.06498 255 255 255
-0.0144735   0.219712    1.69398 255 255 255
-0.0219439   0.603396    1.81753 255 255 255
-0.0801125   0.552462    1.74622 255 255 255
-0.387937  0.405908   1.59501 255 255 255
-0.0976788  0.0545045     1.6652 255 255 255
-0.20999 0.447389  1.65613 255 255 255
-0.123156  0.279273   1.70367 255 255 255
-0.191238  0.527888   1.64362 255 255 255
-0.271029  0.449743   1.64056 255 255 255
 0.202778 -0.741701   3.14091 255 255 255
-0.0712601   0.126458    1.67024 255 255 255
0.263071 -0.64605  3.13408 255 255 255
-0.393643  0.428143   1.56734 255 255 255
0.119631 0.904556  3.09002 255 255 255
-0.011528 -0.145307   1.67505 255 255 255
 0.40731 0.287714  1.41932 255 255 255
-0.149055  0.488219   1.70564 255 255 255
-0.30362  0.49007  1.55558 255 255 255
-0.29782  0.42002  1.62658 255 255 255
0.0188555  0.182056   1.69125 255 255 255
-0.014374  0.127084   1.67437 255 255 255
-0.0488656  -0.090646    1.67102 255 255 255
-0.247448  0.508069   1.60873 255 255 255
-0.045825  0.558697   1.85098 255 255 255
-0.0783858  -0.033709    1.66374 255 255 255
0.158256 0.607402   3.1951 255 255 255
-0.0952996 -0.0047289    1.66335 255 255 255
0.108901   0.7773   3.1837 255 255 255
0.280169 0.369234  1.73163 255 255 255
0.0663072  0.565136   2.10749 255 255 255
-0.0384349  -0.071068    1.66826 255 255 255
-0.212316  0.460421   1.65923 255 255 255
-0.336845  0.572241   1.47124 255 255 255
-0.0463979   0.151624    1.67328 255 255 255
-0.296629  0.460383   1.61599 255 255 255
-0.135188  0.271705   1.69983 255 255 255
-0.42035 0.439401  1.53198 255 255 255
-0.00577448   -0.285165     1.69568 255 255 255
-0.337265  0.437765     1.592 255 255 255
0.230707 0.143804    1.841 255 255 255
 -0.049481 -0.0846528    1.67015 255 255 255
 -0.214191 -0.0665003    1.65177 255 255 255
 0.112451 -0.110716   1.68754 255 255 255
-0.0436186     0.6723    1.67651 255 255 255
-0.364332  0.464161   1.57236 255 255 255
0.56499  1.0277 3.00134 255 255 255
-0.429122  0.482709   1.53538 255 255 255
0.265156 0.421787  2.14337 255 255 255
-0.0771897 -0.0993674    1.66813 255 255 255
0.319253 0.189281  1.19662 255 255 255
-0.107545 -0.150487   1.66437 255 255 255
0.535203  0.69847  3.17147 255 255 255
-0.406116   0.45661   1.52302 255 255 255
0.0286983  0.138761   1.68136 255 255 255
-0.312125  0.499187   1.54863 255 255 255
-0.0595805   0.156716    1.67571 255 255 255
0.630344 0.545486  3.16486 255 255 255
0.349793 0.474769  2.43917 255 255 255
0.610296 0.611663  3.24509 255 255 255
 0.239734 -0.900203   3.32026 255 255 255
0.0415965 -0.283463   1.69603 255 255 255
-0.354146  0.493766   1.54073 255 255 255
 0.345821 -0.871239   3.22985 255 255 255
 0.666769 -0.677678   3.22994 255 255 255
-0.0581377  -0.212842    1.66427 255 255 255
-0.245426  0.521853   1.58917 255 255 255
  0.122156 -0.0926365    1.72311 255 255 255
-0.0851119   0.659095    1.62791 255 255 255
-0.293709  0.498635   1.55976 255 255 255
-0.233549  0.443716   1.64697 255 255 255
0.00821188   0.611633    1.80139 255 255 255
-0.0884484  -0.238084    1.66315 255 255 255
0.359278  0.65696   3.1315 255 255 255
-0.425103  0.529832   1.46776 255 255 255
-0.37504 0.378667  1.64732 255 255 255
-0.213272  0.461351   1.63592 255 255 255
0.00821188   0.611633    1.80139 255 255 255
-0.112013 -0.241697   1.66785 255 255 255
-0.241094   0.60598   1.52355 255 255 255
-0.244889  0.568551   1.52689 255 255 255
0.161495 0.114433   1.7721 255 255 255
-0.0985059   0.605127    1.70742 255 255 255
  0.196778 -0.0989193    1.80753 255 255 255
 -0.228401 -0.0301318    1.64231 255 255 255
 0.551155 -0.660092   3.22131 255 255 255
-0.00604716    0.462099     1.94258 255 255 255
0.534677 0.422218  3.17871 255 255 255
0.182478 0.168816  1.75783 255 255 255
-0.208245  0.539865   1.60236 255 255 255
 0.148209 -0.263017   1.79838 255 255 255
-0.434239  0.376537   1.58666 255 255 255
 0.493143 -0.776565   3.19299 255 255 255
 0.317212 -0.680494    3.1893 255 255 255
0.415338 0.692047   3.1608 255 255 255
-0.245609 -0.187657    1.6699 255 255 255
 0.105177 0.0514661   1.69833 255 255 255
0.090706 0.675398  3.19396 255 255 255
-0.031886  0.537145   1.89001 255 255 255
0.103283 0.850247  3.15962 255 255 255
-0.0418795   0.452911    1.96862 255 255 255
0.454303 0.500338  3.22954 255 255 255
0.454749 0.477171  3.15912 255 255 255
-0.0101955   0.523905    1.92147 255 255 255
0.0433322  0.542596   2.08392 255 255 255
0.0803837  0.583046   2.11331 255 255 255
-0.0199641   0.686232    1.71211 255 255 255
-0.015756  0.661317   1.72915 255 255 255
-0.0261567   0.634391    1.74222 255 255 255
0.619757 0.497848  3.14514 255 255 255
 -0.21611 -0.138485   1.65679 255 255 255
-0.110891 -0.333968   1.69892 255 255 255
-0.0879973  -0.274962    1.66601 255 255 255
