ply
format ascii 1.0
element vertex 1132
property float x
property float y
property float z
property uchar red
property uchar green
property uchar blue
end_header
0.0499776 0.0938552   1.85008 255 255 255
-0.0587894   0.506154    1.82669 255 255 255
 0.0201799 -0.0797941    1.90791 255 255 255
-0.093543  0.520166   1.90666 255 255 255
 0.128166 -0.269684   1.64589 255 255 255
0.0942109 -0.114272   1.85951 255 255 255
-0.213975    0.3921   1.92522 255 255 255
-0.140642  0.487881   1.92408 255 255 255
 0.0281953 -0.0518959    1.89337 255 255 255
 0.027271 0.0141949   1.87264 255 255 255
-0.203374  0.432546   1.98036 255 255 255
0.0935254 -0.201915   1.82326 255 255 255
0.0933552  0.230001   1.76608 255 255 255
 0.152355 -0.239125   1.69645 255 255 255
-0.0321508   0.528775    1.69245 255 255 255
0.00277509   0.231833    1.82389 255 255 255
 0.154105 0.0159467   1.72824 255 255 255
0.121439 0.258431  1.69908 255 255 255
0.0385757 0.0706128   1.87017 255 255 255
-0.24702 0.379414  1.93603 255 255 255
-0.00799608    0.305284     1.73232 255 255 255
-0.234949  0.387799   1.94313 255 255 255
-0.270063  0.367392   1.92245 255 255 255
-0.308007  0.373819   1.91652 255 255 255
  0.184732 -0.0531764    1.69704 255 255 255
0.0870613 -0.149129   1.86102 255 255 255
 0.0333326 -0.0211058    1.88114 255 255 255
-0.0308116   0.043505    1.90256 255 255 255
0.0944762 -0.176718   1.85154 255 255 255
-0.146807  0.523323   1.98208 255 255 255
-0.042478 0.0857706   1.91515 255 255 255
  0.185614 -0.0375231    1.65506 255 255 255
0.086588  0.26733  1.72616 255 255 255
-0.0371166   0.372489    1.64506 255 255 255
0.0827644 -0.153981   1.87485 255 255 255
-0.144417  0.472324   1.94717 255 255 255
-0.168122  0.476171   2.02226 255 255 255
-0.064522  0.508912   1.85122 255 255 255
-0.147354  0.365824   1.84087 255 255 255
0.0874126  0.175891   1.79385 255 255 255
  0.12021 -0.167786   1.81637 255 255 255
0.0299525  0.100076   1.86071 255 255 255
-0.0240492  -0.185409    1.91882 255 255 255
 0.133361 -0.232366   1.61781 255 255 255
-0.0226269 -0.0137457    1.90841 255 255 255
-0.150604   0.46636   1.91546 255 255 255
0.0993521  0.177895   1.77941 255 255 255
-0.110355  0.506622    2.0273 255 255 255
-0.158093  0.514178   1.97524 255 255 255
-0.0850912   0.565693     1.9479 255 255 255
0.137241 0.294479  1.61912 255 255 255
0.0809573 -0.113653   1.87178 255 255 255
 0.140946 -0.251496   1.69087 255 255 255
0.0566252  0.276529   1.75554 255 255 255
 -0.1945 0.436006  1.98426 255 255 255
0.014218 0.107894  1.51628 255 255 255
0.119546 0.246674  1.59851 255 255 255
  0.213497 -0.0102124    1.72249 255 255 255
0.129465 0.270339  1.65937 255 255 255
  0.170288 -0.0623821    1.62984 255 255 255
  -0.190532 -0.00283069     1.46815 255 255 255
-1.39444 -1.71043  3.16923 255 255 255
  0.157659 -0.0149768    1.67808 255 255 255
 0.0875597 -0.0532075    1.50473 255 255 255
0.850888 -1.24155   5.2156 255 255 255
 -0.216745 -0.0942503     1.4991 255 255 255
0.0504589   1.72594   4.86547 255 255 255
-0.0206226   0.495144    1.78528 255 255 255
0.161437 0.200958    1.616 255 255 255
-0.047602  0.454468   1.84964 255 255 255
-0.0855996  -0.234878    1.50063 255 255 255
-1.41044 -1.75902  2.97542 255 255 255
-0.026356  0.463809   1.83335 255 255 255
-0.324035  0.282945   1.55178 255 255 255
  1.0011 -1.37993  5.32402 255 255 255
-0.336725  0.324644   1.47635 255 255 255
0.680921  1.68423  4.72289 255 255 255
-0.00524454    0.570658     2.19741 255 255 255
0.0220002   1.81181   5.62171 255 255 255
-2.46508 -1.69439  5.95861 255 255 255
0.155652 0.169775   1.5725 255 255 255
-0.349335  0.157387   1.40035 255 255 255
 0.0627242 -0.0152221    1.50698 255 255 255
-0.168508  0.467389   1.42057 255 255 255
 0.132876 -0.200359   1.58841 255 255 255
0.0973265  0.634576   1.99121 255 255 255
-1.39721 -1.74908  3.00907 255 255 255
-0.375831  0.343426   1.44249 255 255 255
-0.234997  0.446656   1.39678 255 255 255
0.755401 -1.49469  5.27923 255 255 255
-0.154675   1.30628   5.83765 255 255 255
 -0.219446 -0.0817392    1.49045 255 255 255
0.0837358  0.639556   2.03455 255 255 255
0.0588916  0.611293   2.03115 255 255 255
0.424696 -1.33604  5.31928 255 255 255
-0.0166843    1.48731    5.81208 255 255 255
0.00977936   0.578706    1.73831 255 255 255
0.65864 1.55512   5.936 255 255 255
0.046929  1.25855  5.91375 255 255 255
-0.101948  0.285671   1.52331 255 255 255
0.0218957  0.566986   1.84395 255 255 255
-0.0739033   0.894904     5.9813 255 255 255
-0.211344 -0.138711   1.50583 255 255 255
-0.308779   1.54728   5.93494 255 255 255
0.383536  1.54198  5.85642 255 255 255
-1.02498  1.37528  6.11771 255 255 255
-0.326741  0.337915   1.45991 255 255 255
0.765763  1.29085  5.74334 255 255 255
0.0923002 0.0672665   1.51005 255 255 255
-0.0480926    1.51447    5.84009 255 255 255
-2.33477 -1.56545  5.88968 255 255 255
-0.0440188    0.51606     1.7401 255 255 255
0.141656 -1.53155  5.65957 255 255 255
0.0743829 -0.241888   1.53296 255 255 255
-0.151591  0.473722    1.4607 255 255 255
-0.0398224  -0.126508    1.46716 255 255 255
-0.0245585   0.557711    1.66399 255 255 255
0.447338 -1.76055  5.70162 255 255 255
-0.295152  0.350156   1.46988 255 255 255
  0.0881248 -0.00184453     1.52131 255 255 255
 -0.164613 -0.0171791    1.48877 255 255 255
-0.0478661   0.264316    1.52545 255 255 255
-0.0377535  -0.198542    1.49528 255 255 255
-0.103665 -0.268909    1.5105 255 255 255
-0.0288724    1.83399    5.64892 255 255 255
0.411421  1.75277  5.14376 255 255 255
-0.0602804    0.45539    1.84779 255 255 255
-0.0463765   0.452266    1.83176 255 255 255
0.0220098   1.08009   5.95084 255 255 255
-0.272317   0.44086   1.36287 255 255 255
 -0.044953 -0.0825361    1.47412 255 255 255
-0.0183164   0.528787    1.74085 255 255 255
-0.215383  0.438948   1.41056 255 255 255
-0.104404 -0.128039   1.47225 255 255 255
-0.0529355   0.221252    1.50202 255 255 255
-0.185149 -0.184093   1.49417 255 255 255
-0.211652  -0.03671   1.46372 255 255 255
-0.56325  1.41713  6.00159 255 255 255
-0.273429  0.403422    1.4331 255 255 255
-0.06105 0.313522  1.55249 255 255 255
 -2.4262 -1.52324  5.83293 255 255 255
-0.336007   1.60216   5.78469 255 255 255
-0.268313  0.399757   1.41442 255 255 255
-0.165904 -0.296216   1.53968 255 255 255
0.00671839  -0.230848    1.50931 255 255 255
0.0194147 -0.238453   1.62563 255 255 255
0.0197194  0.541171   1.85638 255 255 255
0.0766547  0.610551   1.90994 255 255 255
-0.285446  0.386879   1.44669 255 255 255
0.0444926  0.599054   1.86791 255 255 255
-1.40606 -1.80186  3.03007 255 255 255
-0.142755 -0.104335   1.49034 255 255 255
-0.539916   1.50495   5.92851 255 255 255
-1.38008 -1.72815  2.95678 255 255 255
-0.00540757    0.565278     1.73559 255 255 255
0.0215044 -0.214427   1.52306 255 255 255
-0.348494  0.378366   1.38849 255 255 255
0.848734 -1.42976  5.25932 255 255 255
-0.0864021   0.172796    1.48639 255 255 255
-0.404735   1.41217   5.93196 255 255 255
-0.0211157   0.504983    1.76594 255 255 255
0.00369046    0.22408    1.50598 255 255 255
0.245124 0.935031  5.85299 255 255 255
0.014785 0.562296  2.00321 255 255 255
-0.114878  0.256375   1.51473 255 255 255
-0.94299  1.40837  5.99338 255 255 255
0.00753344  -0.133382    1.48541 255 255 255
-2.41428 -1.44597   5.8372 255 255 255
-0.0479186  -0.167029    1.48046 255 255 255
-0.00670818    0.555159     1.72752 255 255 255
-0.350901  0.399469   1.36476 255 255 255
-0.00461576   -0.159002     1.47896 255 255 255
-0.0656969 -0.0607519    1.47445 255 255 255
 -0.174151 -0.0693195    1.46383 255 255 255
0.0947348  0.650797   1.93138 255 255 255
0.0619545  -0.30658   1.62469 255 255 255
-0.0593328  -0.160692    1.47369 255 255 255
-0.306496  0.403212   1.38312 255 255 255
-0.383541   1.44883   5.83074 255 255 255
-0.246947  0.415267   1.43393 255 255 255
-0.28997 0.393682  1.39578 255 255 255
0.0558202 -0.306627   1.60734 255 255 255
0.0486926  0.608928   2.04822 255 255 255
  0.187679 -0.0521993    1.66863 255 255 255
-0.0844953   0.286166    1.53724 255 255 255
-0.00143879     0.57082     1.70441 255 255 255
0.0352435 -0.264898   1.54897 255 255 255
-0.343318  0.341842   1.44805 255 255 255
-0.165526  0.410859   1.49018 255 255 255
 0.112797 -0.248862   1.73084 255 255 255
-0.232269   0.38462   1.93235 255 255 255
-0.0371674  0.0112462     1.9193 255 255 255
-0.196442  0.400788   1.94416 255 255 255
0.206329 0.100412  1.64156 255 255 255
-0.0436673   0.083982    1.95471 255 255 255
0.0481204 0.0368863   1.86829 255 255 255
-0.0957508   0.448271    1.81957 255 255 255
0.0479489 0.0618204   1.86482 255 255 255
-0.00235283    0.196388     1.84756 255 255 255
0.0894494  0.220647   1.76402 255 255 255
-0.118131  0.352842   1.84326 255 255 255
-0.171288  0.360721   1.90036 255 255 255
   0.01137 -0.0592495    1.90644 255 255 255
0.0765896  0.174799   1.79442 255 255 255
-0.0605564   0.486544    1.75929 255 255 255
0.084236 0.117354  1.81898 255 255 255
0.0631546  0.277109   1.72789 255 255 255
0.0287373 0.0508136   1.87462 255 255 255
  0.165409 0.00119194    1.69686 255 255 255
-0.000556635     0.186791      1.83135 255 255 255
0.00192698  -0.166809    1.89999 255 255 255
0.0241434 0.0869495    1.7198 255 255 255
 0.0948314 -0.0455553    1.54463 255 255 255
0.111804  0.23989  1.63771 255 255 255
0.148265 0.196371   1.5911 255 255 255
   0.086082 -0.00266186     1.81342 255 255 255
0.0795284  0.239789   1.58434 255 255 255
-0.00610303   -0.246239     1.86415 255 255 255
-0.259664  0.375147   1.45925 255 255 255
 0.218236 0.0985566   1.59364 255 255 255
0.167763 0.114378  1.57039 255 255 255
-0.0155131   0.342465    1.62963 255 255 255
  0.126364 -0.0546183    1.55959 255 255 255
0.0746504  0.176798   1.52458 255 255 255
-0.122395  0.454077   1.84072 255 255 255
-0.198174  0.363903   1.85748 255 255 255
0.108754 -0.03648  1.54292 255 255 255
-0.137099  0.433578   1.55253 255 255 255
-0.0763425   0.375966    1.59454 255 255 255
 0.110865 -0.091675   1.54288 255 255 255
  -0.0010977 -0.000738492      1.87399 255 255 255
-0.482921  0.413925   1.21055 255 255 255
0.17382 0.13765 1.58743 255 255 255
0.139321 0.151977  1.68616 255 255 255
0.151613 0.276847  1.59105 255 255 255
  0.1167 0.171527   1.5498 255 255 255
0.103002 0.168016   1.5481 255 255 255
  0.16024 0.0869844   1.66766 255 255 255
0.0241003  0.152226   1.82117 255 255 255
 0.199311 0.0834766   1.64089 255 255 255
0.107508 0.298828  1.65735 255 255 255
-0.12702 0.463298  1.95595 255 255 255
0.131386 0.193227  1.55024 255 255 255
-0.0526324   0.223327    1.81499 255 255 255
0.0164965  0.319262   1.64223 255 255 255
-0.0537602  0.0443254    1.89074 255 255 255
0.0619759  0.311313   1.62674 255 255 255
-0.0270099   0.339164     1.6786 255 255 255
0.206367 0.103704  1.63389 255 255 255
0.0513003  0.236438   1.77841 255 255 255
-0.21951 0.428855  1.43789 255 255 255
0.124013  0.29244  1.57889 255 255 255
-0.15784 0.434841  1.92533 255 255 255
0.0142816  0.299268   1.57448 255 255 255
-0.0996214    0.20284    1.84559 255 255 255
-1.81405 -1.87391  1.89491 255 255 255
-0.421658  0.398991   1.36672 255 255 255
-0.155964  0.351019   1.83438 255 255 255
-0.387272  0.425394   1.26869 255 255 255
-0.0474485    0.32508    1.75054 255 255 255
-0.269358  0.404773   1.45552 255 255 255
 0.171695 0.0844211   1.65021 255 255 255
-0.0840628  -0.257435    1.93618 255 255 255
0.146647 -0.20457  1.73652 255 255 255
 0.207503 0.0966685    1.5616 255 255 255
0.0115125  0.314455   1.67678 255 255 255
-0.468594  0.408508   1.25324 255 255 255
0.0996788  0.300941   1.58916 255 255 255
 0.114566 -0.218927   1.75856 255 255 255
 0.115796 -0.217987   1.75822 255 255 255
 -0.090245 -0.0237214    1.94145 255 255 255
-0.103852 0.0665901   1.91842 255 255 255
0.0662025  0.133048   1.80971 255 255 255
0.000247431    0.322691     1.67499 255 255 255
 0.0525397 -0.0434383    1.50969 255 255 255
-0.097702 0.0164367    1.9127 255 255 255
 0.0188867 -0.0258299    1.50324 255 255 255
   0.102072 -0.00799302     1.57528 255 255 255
-0.112423  0.307791   1.54967 255 255 255
 -0.140302 -0.0622774    1.93784 255 255 255
  0.045209 -0.0565683    1.49891 255 255 255
-0.160251  0.415196   1.53036 255 255 255
-0.0518567   0.316669    1.76824 255 255 255
0.0541757 0.0844616   1.83628 255 255 255
0.0881113  -0.17568    1.8279 255 255 255
-0.0225626   0.284694    1.75171 255 255 255
0.120073 0.159228     1.53 255 255 255
-0.143653  0.368494   1.82704 255 255 255
-2.01985 -1.86278  2.51691 255 255 255
0.0295047  0.298461   1.71458 255 255 255
-0.431698  0.429808    1.2482 255 255 255
-0.237767  0.381579   1.48577 255 255 255
-2.40609 -1.91515  2.77957 255 255 255
-0.16602  0.45312   2.0166 255 255 255
0.0987913  0.219118   1.53348 255 255 255
-0.143268  0.444338   1.55571 255 255 255
0.0387757 -0.131632   1.87074 255 255 255
0.076397  -0.1525   1.8436 255 255 255
0.0570325 -0.311202   1.63021 255 255 255
   0.147707 -0.00476176     1.70826 255 255 255
0.134995 0.280254  1.56305 255 255 255
-2.40221 -2.00691  2.80774 255 255 255
-0.212601  0.373978   1.89509 255 255 255
0.0757499  0.246685   1.75168 255 255 255
-0.310644  0.384535    1.4549 255 255 255
 0.12021 0.257967  1.69977 255 255 255
0.138958 0.283852  1.64712 255 255 255
-0.0879046 0.00188078    1.91697 255 255 255
0.137923 0.117871  1.55798 255 255 255
-1.94612 -1.96666  2.59298 255 255 255
0.129733 0.245816  1.69718 255 255 255
-0.0587223   0.409474    1.65922 255 255 255
-0.0528272   0.347133    1.59618 255 255 255
-0.0376355    0.31441    1.74094 255 255 255
 0.12725 0.291339  1.66038 255 255 255
0.0501574   -0.1755    1.8567 255 255 255
-0.454898  0.418149   1.20089 255 255 255
-1.48796  -1.8282  2.87754 255 255 255
0.107805 0.245941  1.72933 255 255 255
0.143579  0.22094  1.58346 255 255 255
-1.90732 -1.88179  2.59322 255 255 255
 0.0487227 0.00043622    1.85133 255 255 255
0.143675 0.279723  1.59165 255 255 255
-1.51422  -1.7654  2.91045 255 255 255
-0.0628384   0.322907    1.75728 255 255 255
 -0.0723686 -0.00916618     1.92356 255 255 255
0.0277701  0.315524   1.60815 255 255 255
0.0158678  0.320057   1.64023 255 255 255
-0.352163  0.382912   1.40153 255 255 255
0.149928 0.236422  1.64675 255 255 255
-0.0932072   0.461407    1.65563 255 255 255
-1.92376 -2.24015  2.70015 255 255 255
 0.107205 -0.198483   1.78783 255 255 255
-1.97262 -2.28235  2.59577 255 255 255
-0.0340266   0.339592    1.61286 255 255 255
-1.87054 -2.06627  2.01981 255 255 255
0.146089 0.237552  1.66817 255 255 255
  0.141916 -0.0593043    1.55366 255 255 255
0.0939344  0.227478   1.75038 255 255 255
-0.0253352    0.33081     1.6025 255 255 255
-0.0350244   0.332521    1.71956 255 255 255
0.0705467 -0.279952   1.58141 255 255 255
-1.36994 -1.58598  3.00853 255 255 255
0.101676 0.204008  1.75142 255 255 255
-0.358181  0.403914   1.38161 255 255 255
0.066297 0.161092   1.5044 255 255 255
0.0790723  0.172077   1.78612 255 255 255
-0.187921  0.389398   1.87783 255 255 255
-1.97516 -1.91589  1.84391 255 255 255
 0.157033 0.0224788   1.73599 255 255 255
  0.169757 -0.0406266    1.60194 255 255 255
-2.45024 -1.95621  2.73309 255 255 255
-0.0358166   0.301929    1.73623 255 255 255
0.109533 0.254037  1.71858 255 255 255
-1.91515 -2.25435  2.65223 255 255 255
0.0623109  0.302808   1.58713 255 255 255
-0.0663621  -0.166147    1.91237 255 255 255
0.184566 0.102546  1.82885 255 255 255
  0.14096 -0.118005   1.76659 255 255 255
0.0767582  0.373445   1.62563 255 255 255
0.026867 0.267391  1.80139 255 255 255
-0.0605401  0.0593388    1.94012 255 255 255
-0.0796281   0.458803    1.56479 255 255 255
-0.011277  0.458702   1.71452 255 255 255
-0.189352  0.422323   1.99396 255 255 255
 -0.238157 -0.0179854    1.94806 255 255 255
0.0180511  0.327243   1.70214 255 255 255
 0.110469 -0.185291   1.81738 255 255 255
-0.018663  0.535909   1.70751 255 255 255
0.206329 0.100412  1.64156 255 255 255
 -0.0309665 -0.00728975     1.92665 255 255 255
-0.0284038   0.429053    1.69034 255 255 255
-0.0353425   0.520077    1.71413 255 255 255
0.0113468 -0.120393   1.88688 255 255 255
0.0956469 -0.137946   1.84821 255 255 255
0.0114226 -0.210704    1.8949 255 255 255
-0.19177 0.485178  1.94309 255 255 255
-0.0626068  -0.101763     1.9419 255 255 255
0.179125 -0.01357  1.63588 255 255 255
 0.16071 0.217763  1.61286 255 255 255
-0.0123558   0.473996    1.75048 255 255 255
-0.0673129  0.0940117    1.94823 255 255 255
-0.193266   0.41954   1.95784 255 255 255
0.168842 0.260131  1.64543 255 255 255
0.0318378  0.175246   1.84231 255 255 255
-0.223581 -0.185786   1.94215 255 255 255
-0.199288  0.458762   1.95132 255 255 255
-0.0670484  -0.158774    1.95589 255 255 255
-0.260561  0.351779   1.93159 255 255 255
-0.155013  -0.30461   1.89778 255 255 255
0.0799702 -0.124416   1.85041 255 255 255
0.0563351 -0.156226   1.88381 255 255 255
0.0919865  0.220762   1.76483 255 255 255
-0.00718566    -0.19834     1.91529 255 255 255
-0.222827  0.441845   1.95939 255 255 255
-0.15541 0.389353  1.89033 255 255 255
 0.0262768 -0.0303658    1.87633 255 255 255
-0.0502657 -0.0267536    1.94252 255 255 255
-0.064085 0.0966881   1.93061 255 255 255
0.0466905 0.0623375   1.86449 255 255 255
-0.0453957    0.49594     1.8142 255 255 255
-0.292111  0.379554   1.93672 255 255 255
0.0782556  0.166722   1.80329 255 255 255
-0.255692  0.414679    1.9582 255 255 255
-0.00363516  -0.0934465     1.91644 255 255 255
-0.072364  0.492187   1.84661 255 255 255
0.155707 0.104044  1.72379 255 255 255
  0.145056 -0.0193815    1.79306 255 255 255
0.161429 0.215733   1.6243 255 255 255
-0.196551  0.455276   1.94466 255 255 255
-0.105376  0.471666   1.55011 255 255 255
-0.0188264 -0.0640498    1.90275 255 255 255
0.0137139  0.541638    1.6474 255 255 255
-0.241856  0.372559   1.93379 255 255 255
0.0250958  0.059157   1.87543 255 255 255
0.0523576 -0.247786   1.85766 255 255 255
-0.0295156   0.416109    1.68626 255 255 255
-0.190362   0.44472    1.9598 255 255 255
-0.0715803  -0.230445    1.92076 255 255 255
 -0.037868 -0.0623963    1.90601 255 255 255
-0.204449  0.447951   1.95273 255 255 255
-0.301571  0.309335   1.78773 255 255 255
0.0236258 -0.128998   1.89379 255 255 255
0.034966 0.217454  1.81847 255 255 255
-0.0426338  0.0153266    1.93658 255 255 255
-0.0407724   0.132683    1.91768 255 255 255
0.0405269  0.043812   1.86636 255 255 255
0.0166232  0.288333   1.75973 255 255 255
0.0513065  0.256011   1.76812 255 255 255
-0.0072656    0.24829    1.94928 255 255 255
-0.118729  0.312892   1.89495 255 255 255
0.144539 0.238064  1.65618 255 255 255
-0.0260134   0.527989    1.90016 255 255 255
 -0.171563 -0.0614533    1.93399 255 255 255
-0.123777  0.487371   1.97935 255 255 255
-0.124017 -0.247957   1.91204 255 255 255
0.212602 0.094513  1.58883 255 255 255
0.0472478  0.163423   1.81338 255 255 255
-1.90076 -1.87307  1.83679 255 255 255
-0.0380511   0.513813    1.98916 255 255 255
-0.163412  0.503964   2.12151 255 255 255
-0.289608  0.501279   1.26531 255 255 255
-2.12614  -1.8475  1.93367 255 255 255
0.196294 0.129534  1.61705 255 255 255
-0.203886  0.507877    1.3285 255 255 255
-0.125991  0.493476    2.0602 255 255 255
-0.0507279   0.496549    1.73626 255 255 255
-1.87794 -2.05871  2.04026 255 255 255
-0.0681501   0.502911    1.99415 255 255 255
0.154323 0.266368    1.617 255 255 255
-0.0948087    0.50117    1.94915 255 255 255
-0.136125  0.459834   1.90941 255 255 255
-0.228174  0.382382   1.93547 255 255 255
-0.0174961   0.129356    1.86051 255 255 255
-0.101335  0.494208   2.03326 255 255 255
-0.104622  0.466529   1.87113 255 255 255
 0.090601 -0.178729   1.85173 255 255 255
-0.113101  -0.28953    1.8836 255 255 255
  0.136843 0.00941237     1.7726 255 255 255
-1.95655 -1.84856  2.10777 255 255 255
-0.314282  0.431735   1.27549 255 255 255
-1.92091 -2.01969  2.15079 255 255 255
-0.148053  0.478237   2.03381 255 255 255
-0.387747  0.425897   1.24778 255 255 255
0.111953 0.300334  1.64657 255 255 255
-0.256828  0.495853   1.26566 255 255 255
-0.223473  0.505247   1.34117 255 255 255
-1.86035 -1.96933  2.12503 255 255 255
-0.36877 0.426718  1.21581 255 255 255
-0.102041    0.5304   2.14464 255 255 255
-0.236553  0.452914   1.39462 255 255 255
-0.0630266  -0.196204    1.94299 255 255 255
-0.14089 0.481802  2.06196 255 255 255
-0.208106  0.351414   1.90285 255 255 255
0.150695 0.180085  1.69679 255 255 255
-0.122986  0.490722   1.97679 255 255 255
0.167174 0.147662  1.57719 255 255 255
  0.189069 -0.0503629    1.67956 255 255 255
-0.00796408    0.231951     1.80767 255 255 255
-0.34285 0.462785  1.20613 255 255 255
-1.81811 -1.93799   2.0227 255 255 255
-0.0543959   0.506702    1.96182 255 255 255
-0.221996  0.402973   1.97674 255 255 255
-1.88791 -2.02847  2.12365 255 255 255
-0.0103791   0.309647    1.70851 255 255 255
-0.0230261   0.323968    1.69593 255 255 255
0.0321797 -0.129752   1.91734 255 255 255
 0.0598337 -0.0629822    1.88251 255 255 255
-0.136408  0.483117   2.05013 255 255 255
0.159268 0.188311  1.57681 255 255 255
-0.165272  0.355864   1.84386 255 255 255
0.0949131  0.256629   1.72485 255 255 255
   0.172527 -0.00789289     1.73662 255 255 255
 0.0834794 -0.0815023    1.86976 255 255 255
0.0862362 -0.190801   1.85168 255 255 255
-0.11736 0.534087  2.15195 255 255 255
0.128794 0.236457  1.71318 255 255 255
-0.107662  0.438045   1.82739 255 255 255
0.119389 0.290035  1.65761 255 255 255
-0.157163  0.394353   1.86141 255 255 255
 0.184755 -0.049395   1.74473 255 255 255
  0.182999 -0.0544049    1.71258 255 255 255
0.0751339 -0.146127   1.87628 255 255 255
0.127478 0.224777   1.7195 255 255 255
-0.175186  0.407228   1.92821 255 255 255
-0.0756662   0.493141    1.97075 255 255 255
-0.157008  0.480662   2.07279 255 255 255
-0.0945739   0.482966    1.62083 255 255 255
-0.10263 0.495914  1.89601 255 255 255
-0.370171  0.437144   1.19894 255 255 255
-1.98196 -1.91366  1.80176 255 255 255
-1.86863 -1.88188  2.08143 255 255 255
-0.101749  0.493763   1.95943 255 255 255
-0.0956499   0.503275    2.09361 255 255 255
-0.0362655  -0.245501    1.91219 255 255 255
-0.0483913   0.531309    1.68272 255 255 255
 0.105714 -0.103114   1.85027 255 255 255
-0.0613284   0.502194    1.81778 255 255 255
0.159628 0.150784  1.56257 255 255 255
-1.86868 -1.92281  2.13908 255 255 255
  0.155796 0.00602951    1.75862 255 255 255
0.122201 -0.12821  1.82328 255 255 255
-1.87577 -1.85774  2.08755 255 255 255
0.119959 -0.12437  1.83741 255 255 255
-0.0267479   0.262799    1.79182 255 255 255
0.0833346   0.25407    1.7469 255 255 255
-0.215443   0.46875   2.04856 255 255 255
0.0621458  0.187372   1.80066 255 255 255
-0.0839585   0.506349    2.03571 255 255 255
-0.0818336   0.492392    1.83058 255 255 255
-1.87402 -1.70842  1.95726 255 255 255
-0.149986  0.444794   1.94652 255 255 255
-0.118828 -0.320245   1.91088 255 255 255
-0.192927  0.412822   1.47986 255 255 255
0.0371166  0.549702   1.84736 255 255 255
-0.145708  0.500654   1.41936 255 255 255
-0.187059 -0.413298   1.78836 255 255 255
-0.184552 -0.254072   1.52789 255 255 255
 0.112604 -0.235414   1.59895 255 255 255
0.429415  0.40291  2.47267 255 255 255
-0.0268044   0.349242    1.66036 255 255 255
-0.36835 0.286938  1.52461 255 255 255
0.737608 -1.50576  5.44646 255 255 255
-0.385657  0.348918     1.417 255 255 255
-0.229468  0.039321   1.51052 255 255 255
-0.272793  0.435224   1.38112 255 255 255
-0.251293  -0.33037   1.61878 255 255 255
-0.335776  0.447226   1.21522 255 255 255
-0.0221526   0.608186     1.5419 255 255 255
-0.342496  0.446922   1.24618 255 255 255
-0.380406  0.326594   1.43871 255 255 255
-0.374301  0.342404   1.44991 255 255 255
-0.0113111   0.557346    1.69539 255 255 255
-0.264481   0.46495   1.32098 255 255 255
-0.338602  0.443934   1.26136 255 255 255
1.55934 1.43005 4.99076 255 255 255
-0.383499  0.440682   1.23975 255 255 255
-0.0219105   0.601509     1.5819 255 255 255
-0.399141  0.403658   1.34916 255 255 255
-0.288506  0.429273    1.3206 255 255 255
-0.416721  0.334558   1.51707 255 255 255
0.920935   1.8146  4.62732 255 255 255
 -0.263031 -0.0459321    1.51498 255 255 255
-0.466883 0.0734521   2.18782 255 255 255
-0.0734663   0.476138    1.65374 255 255 255
 0.112314 -0.208574   1.55854 255 255 255
-0.348578  0.407825   1.34281 255 255 255
-0.0421685   0.573594    1.57132 255 255 255
-0.390939  0.432282   1.23023 255 255 255
-0.0303284   0.579895    1.59037 255 255 255
-0.331147  0.446034   1.30205 255 255 255
-0.374413  0.358961   1.42717 255 255 255
  0.162719 -0.0243556    1.60146 255 255 255
-0.427905  0.431754   1.26858 255 255 255
-0.243246 -0.195993    1.5159 255 255 255
0.740582 -1.45017  5.31885 255 255 255
 -0.349328 -0.0614094    1.65365 255 255 255
  -0.24503 -0.0298135    1.52092 255 255 255
-0.00903497    0.584692     1.65934 255 255 255
0.0142409  0.546399   1.76398 255 255 255
-0.0700491   0.455562    1.66414 255 255 255
-0.00486578    0.517987     1.77528 255 255 255
-0.153672  0.477925   1.43006 255 255 255
-0.360797  0.405037   1.35378 255 255 255
1.41086  1.4876 5.03542 255 255 255
0.140669 0.220019  1.59817 255 255 255
-0.156159  0.512603    1.3863 255 255 255
0.0814452  0.296644   1.58931 255 255 255
0.733285 -1.37473  5.37358 255 255 255
-0.137726   0.54017   1.38819 255 255 255
-0.163267  0.402269   1.47814 255 255 255
-0.436385  0.428073   1.25109 255 255 255
-0.0870776  -0.235324    1.48093 255 255 255
-0.0025438   0.601604    1.67429 255 255 255
-0.391891  0.400428   1.35488 255 255 255
1.36155 -1.3054 4.97737 255 255 255
-0.133327  0.527008   1.39207 255 255 255
 0.0662919 -0.0419786    1.48137 255 255 255
  0.134157 -0.0616127    1.53335 255 255 255
-0.0336289   0.588534    1.52945 255 255 255
0.0750181  0.305674   1.63254 255 255 255
-0.368555  0.399434   1.34317 255 255 255
-0.133835 -0.107838   1.47602 255 255 255
-0.435418   0.42722   1.26912 255 255 255
-0.401464  0.427196   1.24679 255 255 255
 -0.215103 -0.0862411    1.48842 255 255 255
 -0.194329 -0.0994988     1.4827 255 255 255
-0.339617  0.408902   1.30612 255 255 255
-0.274826  0.429477   1.33542 255 255 255
-0.398108  0.448569   1.22048 255 255 255
0.914888  0.99656   3.8572 255 255 255
-0.430008  0.431985   1.22922 255 255 255
-0.0992758  -0.232289    1.47903 255 255 255
-0.213834   0.45042   1.43483 255 255 255
-0.402254  0.337202    1.4499 255 255 255
-0.382041  0.339947   1.45654 255 255 255
0.143239 0.231802  1.60917 255 255 255
  -0.3022 -0.281712   1.65885 255 255 255
0.937781  1.86944  4.74393 255 255 255
-0.260089 -0.311836   1.60795 255 255 255
-2.10747 -1.56101  5.73106 255 255 255
-0.320339  0.456934   1.25299 255 255 255
-0.0576899   -0.13132    1.46795 255 255 255
-0.303813  0.386559   1.42469 255 255 255
-0.375339  0.399167   1.35112 255 255 255
   -0.272089 -0.000781855      1.54036 255 255 255
-0.205802  0.386345    1.4638 255 255 255
-0.384168  0.425692   1.24313 255 255 255
-0.0820876   -0.12435    1.47392 255 255 255
-0.392185  0.465869    1.2175 255 255 255
-1.37625 0.981246  6.24275 255 255 255
-0.336378  0.317065   1.48826 255 255 255
-0.432603  0.426627   1.22379 255 255 255
-0.221202  -0.21755   1.52418 255 255 255
-0.239568  0.448206   1.37701 255 255 255
-0.246631 -0.118984   1.50934 255 255 255
-0.112209 -0.222253   1.48553 255 255 255
-0.188399  0.508378   1.34968 255 255 255
-0.143576 -0.126531   1.47667 255 255 255
-0.110518  0.495385   1.50402 255 255 255
-0.259551 -0.116747   1.53296 255 255 255
-0.360825  0.396994   1.35236 255 255 255
-0.0350498  -0.154442    1.47027 255 255 255
  -0.27194 -0.0480832    1.53184 255 255 255
-0.452792  0.396271   1.35908 255 255 255
-0.232617  0.430712   1.43821 255 255 255
0.93181 1.52692 5.72877 255 255 255
-0.343433  0.429017   1.29435 255 255 255
-0.436372  0.416754   1.27457 255 255 255
-0.325871  0.441809   1.31612 255 255 255
-0.00363843    0.193981     1.48947 255 255 255
  -0.228542 -0.00319834     1.48488 255 255 255
-0.250982    0.4686   1.32158 255 255 255
-0.245546   0.44571   1.38491 255 255 255
-0.0921625   -0.12359    1.47203 255 255 255
0.0693712   -0.1148    1.4963 255 255 255
0.287673 -1.54991  5.50584 255 255 255
-0.0178471 -0.0443392    1.47437 255 255 255
-0.290338  0.416761   1.38436 255 255 255
-0.0779007   0.524514    1.53867 255 255 255
0.158795 0.183326   1.5908 255 255 255
 -1.9444 -1.59236  6.24856 255 255 255
-0.0211496  -0.146301    1.47298 255 255 255
-0.422008  0.448432   1.21563 255 255 255
-0.0306805    0.21178    1.49603 255 255 255
-0.0302983   0.213917    1.49746 255 255 255
 -0.2804 0.396673  1.39944 255 255 255
-0.0555678   0.517342    1.63468 255 255 255
-0.0999482 -0.0370127    1.47658 255 255 255
1.07705 1.41713 5.70042 255 255 255
-0.306477  0.371109   1.44286 255 255 255
-0.198304 -0.238304   1.51461 255 255 255
  0.121169 -0.0162788    1.54812 255 255 255
0.968603 -1.40033  5.29362 255 255 255
0.785936  1.67058  5.49398 255 255 255
0.0249825  0.181082    1.4961 255 255 255
0.141036 -1.61865  5.68911 255 255 255
-0.365802  0.417786    1.3017 255 255 255
 -0.192474 -0.0688763    1.45408 255 255 255
0.134274 0.249752  1.57777 255 255 255
-0.292875  0.433404   1.36419 255 255 255
-0.374087   0.43254   1.28536 255 255 255
0.797513  1.40533  5.72115 255 255 255
0.0402738  0.153707   1.48854 255 255 255
 -0.22609 -0.147038     1.491 255 255 255
-0.0292383   0.151723    1.48291 255 255 255
-0.0294161   0.153228    1.47167 255 255 255
-0.204051 -0.150214   1.48493 255 255 255
0.297056  1.49281  5.85273 255 255 255
0.963429  1.38332  5.82291 255 255 255
-0.098299 -0.060512   1.47216 255 255 255
-0.0106155   0.202617    1.49224 255 255 255
-0.0416974  0.0237385    1.46255 255 255 255
-0.0417142    0.02396    1.45799 255 255 255
-0.371593  0.330248   1.47343 255 255 255
-0.421773  0.432321   1.26895 255 255 255
-0.192596 -0.225263   1.49386 255 255 255
-0.333852  0.325501   1.47578 255 255 255
-0.238003   0.42223   1.43541 255 255 255
-0.121579  0.499058   1.49344 255 255 255
-0.143183  0.419652   1.72242 255 255 255
0.0528121  0.303691   1.64662 255 255 255
-0.0458406   0.536473    1.67344 255 255 255
  0.109409 -0.0873511    1.79873 255 255 255
 0.145984 -0.069002   1.58066 255 255 255
-0.0564829   0.489911     1.7492 255 255 255
-0.158317  0.518507   1.46039 255 255 255
-1.97051 -1.82104   2.5548 255 255 255
 0.167557 0.0682181   1.56678 255 255 255
0.00158679 -0.0816793    1.49878 255 255 255
-0.296804  0.415606   1.38339 255 255 255
  0.127465 -0.0704652    1.79382 255 255 255
-1.85594 -1.66204  1.99517 255 255 255
-1.91547 -2.01028  2.22405 255 255 255
 0.129795 -0.200514    1.5901 255 255 255
-0.31127 0.443727  1.33624 255 255 255
 -0.140714 -0.0559696    1.48681 255 255 255
-0.273719  0.465998   1.26013 255 255 255
0.147318 0.274513  1.57276 255 255 255
0.189117  0.15563  1.59869 255 255 255
 -1.8465 -2.31884  2.81766 255 255 255
-0.105588   0.45827   1.54907 255 255 255
0.167786 0.102187  1.57935 255 255 255
-1.85837 -2.16993  2.75815 255 255 255
   0.15841 0.00315413    1.69645 255 255 255
-0.0220393   0.569779    1.72648 255 255 255
-0.028046  0.537341   1.70488 255 255 255
-0.172539  0.479899    1.3835 255 255 255
-0.104426 -0.275898   1.53616 255 255 255
-0.100497  0.445404   1.56899 255 255 255
-0.200946  0.486075   1.48697 255 255 255
-0.0458456   0.535706    1.70032 255 255 255
-0.200419 0.0249508   1.49203 255 255 255
-0.216626  0.458077   1.42145 255 255 255
-0.0896938   0.226847    1.51955 255 255 255
-0.00162442    0.211932     1.50639 255 255 255
-1.95878 -2.27853  2.57959 255 255 255
0.207297 0.111654  1.62458 255 255 255
-0.321842  0.440908    1.2702 255 255 255
-0.168727  0.469509   1.44044 255 255 255
-0.337793  0.425484   1.26065 255 255 255
-0.32755 0.386843  1.43095 255 255 255
-0.321618  0.362735   1.44368 255 255 255
-0.200595  0.482847   1.46194 255 255 255
-0.344705  0.385562   1.36314 255 255 255
 0.15583 0.209908  1.59279 255 255 255
-0.354511  0.412799   1.34005 255 255 255
0.0173952  0.582328   1.82437 255 255 255
-0.124435  0.524791   1.48635 255 255 255
-0.103085  0.458261   1.82871 255 255 255
-1.32675 -1.64789  3.02206 255 255 255
-0.0200842  -0.284277    1.56803 255 255 255
-0.264152   0.44057   1.42139 255 255 255
-0.376339  0.376621   1.35628 255 255 255
-0.0819756   0.498934    1.62877 255 255 255
-1.48237 -1.60981  2.99939 255 255 255
-0.297186  0.393292   1.41074 255 255 255
 -2.3291 -1.95193  2.76758 255 255 255
0.00656532   0.175039    1.49657 255 255 255
-0.0209286   0.332714     1.6067 255 255 255
-0.224248  0.514794   1.31618 255 255 255
-0.176707  0.508096   1.39514 255 255 255
-0.0406198   0.276965     1.5409 255 255 255
-1.84441 -1.91553  2.16978 255 255 255
 -0.190903 -0.0388445    1.49736 255 255 255
-0.0536556   0.481014    2.02692 255 255 255
-0.352543   0.43228    1.2478 255 255 255
0.0413332  0.311854   1.60054 255 255 255
0.155241 0.228884  1.58386 255 255 255
0.143729 0.250571  1.66473 255 255 255
-1.60307  -1.7028  2.98467 255 255 255
-0.153351  0.398712   1.91098 255 255 255
0.191243 0.128295   1.6011 255 255 255
 -0.030261 -0.0897107    1.49239 255 255 255
-1.43933 -1.75144  3.19246 255 255 255
0.160998 0.273863  1.61904 255 255 255
0.00978154   0.140837    1.48967 255 255 255
-0.332631  0.434452   1.26275 255 255 255
0.0455133  0.257756   1.52604 255 255 255
 0.0749595 -0.0339226    1.50401 255 255 255
-1.64091 -1.75686   2.9783 255 255 255
 -1.9101 -1.77158  2.62634 255 255 255
 0.132841 -0.201166    1.6089 255 255 255
-0.106599  0.459344   1.56332 255 255 255
0.0434988  0.210982   1.50682 255 255 255
-0.0579451   0.545296    1.49873 255 255 255
0.0302945 -0.282837   1.57073 255 255 255
  0.131553 -0.0205676    1.56304 255 255 255
-0.0956706   0.485867     1.6221 255 255 255
-0.174165  0.428851   1.52554 255 255 255
 0.135343 -0.224671   1.61226 255 255 255
-1.77757 -1.73917  1.91402 255 255 255
-1.37046 -1.64599  3.02868 255 255 255
-1.42243 -1.85975  2.98519 255 255 255
 0.0602413 -0.0703954    1.50489 255 255 255
-0.10444 0.471989   1.5653 255 255 255
-1.92618 -1.89513  1.84957 255 255 255
-1.90832 -1.82668  2.72626 255 255 255
 0.124695 -0.187667   1.57519 255 255 255
 0.142127 -0.216672   1.72139 255 255 255
 -1.9067 -1.76185  2.52345 255 255 255
-0.136253  0.438936   2.00467 255 255 255
0.136821 0.271482  1.56887 255 255 255
-0.195403  0.434145   1.41174 255 255 255
0.103841 0.241306  1.53053 255 255 255
 0.176646 0.0148398   1.73657 255 255 255
-0.0119256   0.349337    1.63287 255 255 255
-0.128223   0.50134   1.58123 255 255 255
-1.90035 -1.88945  2.59287 255 255 255
-0.0926385   0.515979     1.5934 255 255 255
-0.0846349   0.504239    1.62576 255 255 255
-0.104661  0.477496   1.56112 255 255 255
  0.133225 -0.0386627    1.58785 255 255 255
-0.125916  0.506742   1.57871 255 255 255
    0.1306 -0.0486248    1.52139 255 255 255
0.148859 0.145868  1.53878 255 255 255
-0.182083  0.478125   1.42339 255 255 255
 0.108468 -0.235268   1.77764 255 255 255
-0.124861  0.426253   1.91512 255 255 255
  0.130252 0.00265417    1.68445 255 255 255
-0.267345  0.344123   1.49693 255 255 255
0.121849 0.178329   1.5645 255 255 255
-0.0583181   0.506413    1.73296 255 255 255
0.109871 0.112719     1.71 255 255 255
0.154469 0.148756  1.60137 255 255 255
-0.0778707  0.0575877    1.92434 255 255 255
-0.0816894   0.471991    1.79431 255 255 255
-0.169713   0.41232   1.48665 255 255 255
-0.029563 0.0594526    1.8862 255 255 255
-0.0516163  0.0391216    1.90412 255 255 255
-0.122205  0.353204   1.83358 255 255 255
-1.93777 -1.93385   2.5626 255 255 255
0.0666722 -0.211105   1.85655 255 255 255
-0.110497  0.488418   1.55769 255 255 255
0.137685 0.213554  1.59105 255 255 255
-0.326535  0.444083   1.29197 255 255 255
0.165294 0.194425  1.61097 255 255 255
 0.152538 0.0100538   1.58466 255 255 255
-0.0789648   0.524227    2.01121 255 255 255
-1.83818 -1.95516  1.88749 255 255 255
-0.127921  0.476698    1.9793 255 255 255
-0.119606  0.464388   1.86708 255 255 255
 0.130463 -0.210289   1.64762 255 255 255
-0.0745152   0.492248    1.74233 255 255 255
-0.0871418   0.491938    1.82729 255 255 255
-0.0120698   0.287979    1.74695 255 255 255
-1.92051 -1.87421  2.71299 255 255 255
-0.13722 0.445773   1.8932 255 255 255
0.0432764   0.04386   1.86344 255 255 255
-0.113169  0.453909   1.88356 255 255 255
-0.178367  0.425521   1.97399 255 255 255
-0.0855523   0.478003    1.72073 255 255 255
-0.323998  0.437521   1.24297 255 255 255
  0.157406 -0.0182903    1.61088 255 255 255
-0.0539198  0.0293396    1.90595 255 255 255
-0.0672432   0.529969      2.088 255 255 255
0.117702 -0.15824  1.82756 255 255 255
0.167388 0.157845  1.57833 255 255 255
0.0912569 -0.154079   1.85503 255 255 255
 0.0337355 -0.0758845    1.88987 255 255 255
0.119814 0.292927  1.64561 255 255 255
-0.0963533   0.482767    1.62141 255 255 255
 -1.9497 -1.96593  2.61325 255 255 255
 0.0247972 -0.0252914    1.88157 255 255 255
-0.0478571   0.497042    1.80246 255 255 255
-0.016394   0.29845   1.72765 255 255 255
-0.0840896   0.479092     1.7542 255 255 255
0.0926638  0.259023   1.72289 255 255 255
-0.0794702   0.493738    1.81223 255 255 255
-0.164122  0.355612   1.84426 255 255 255
-0.0621185   0.502964    1.66554 255 255 255
0.109944 0.205881  1.74936 255 255 255
0.107679 0.264073  1.71159 255 255 255
-0.0928722   0.514128    1.94527 255 255 255
-0.0798487   0.478902     1.8271 255 255 255
0.0454779 -0.108992   1.88825 255 255 255
   0.16401 0.00426417    1.74574 255 255 255
-0.0265518  -0.137747    1.93788 255 255 255
 -0.032233 -0.0105142    1.91737 255 255 255
 0.137046 -0.199362   1.78494 255 255 255
  0.174022 -0.0271997     1.6422 255 255 255
-2.02226 -1.88179  1.84384 255 255 255
-0.189966  0.467825    1.4445 255 255 255
-0.0559837   0.498554    1.81401 255 255 255
 0.140981 0.0136644    1.6758 255 255 255
-0.0771722  0.0302233    1.91179 255 255 255
0.0155979  0.250386   1.78441 255 255 255
0.016316 0.250448  1.78474 255 255 255
-0.121124  0.465947   1.56776 255 255 255
0.112691 0.131291  1.79167 255 255 255
-0.0141984   0.267359    1.77158 255 255 255
 0.151004 0.0103933   1.75324 255 255 255
-1.88776 -1.87985   2.0714 255 255 255
  0.147444 -0.0444422    1.58727 255 255 255
0.113092 0.161754  1.76925 255 255 255
0.0018379 -0.159975   1.91481 255 255 255
-1.97476 -1.74053  2.59412 255 255 255
-0.21563   0.3877  1.95659 255 255 255
   0.17169 -0.0926831    1.76088 255 255 255
 0.0829321 -0.0137302    1.84995 255 255 255
-0.732003 -0.725583   1.15568 255 255 255
 -1.8965 -1.77702  1.98074 255 255 255
-0.163361  0.415258    1.9231 255 255 255
  0.1183 0.271534  1.69028 255 255 255
-1.96125 -1.92158  1.82783 255 255 255
-2.10085 -1.94628  2.11563 255 255 255
-0.0867832  0.0704512    1.92019 255 255 255
 0.14981 -0.19517  1.73852 255 255 255
-0.00011228    0.238823     1.47948 255 255 255
-0.200395  0.150692   1.52176 255 255 255
  0.162168 -0.0692079    1.67295 255 255 255
  0.160099 -0.0705792    1.67535 255 255 255
-0.00130907    0.351446     1.67683 255 255 255
 0.14109 0.143151  1.54812 255 255 255
-0.287597   0.40053   1.43037 255 255 255
-0.0793842   0.461582     1.7645 255 255 255
-0.194897  0.429542   1.45174 255 255 255
0.0816888 -0.305785     1.628 255 255 255
0.128911  0.15918  1.54734 255 255 255
0.193987 0.111662  1.59003 255 255 255
0.010971 0.510804  1.80635 255 255 255
0.000549601     0.51688     1.83257 255 255 255
-0.156925 -0.074016   1.45357 255 255 255
-5.22502 -2.07249  7.46557 255 255 255
0.0628153   0.59818   1.95472 255 255 255
-0.338316  0.383167   1.37854 255 255 255
-0.175421  0.482461   1.40117 255 255 255
-0.112153  0.430095   1.86481 255 255 255
 -0.179161 -0.0948688    1.48052 255 255 255
0.0244185  0.510221   1.90535 255 255 255
-0.199683 0.0333441   1.46838 255 255 255
-0.364935  0.376741   1.36205 255 255 255
 0.214315 0.0659444    1.6086 255 255 255
-0.213002  0.460949   1.36842 255 255 255
-0.156593  0.499798   1.42628 255 255 255
-0.0437005   0.451943    1.83493 255 255 255
0.163173  0.10968   1.5683 255 255 255
-0.326546  0.386408    1.4425 255 255 255
-0.222887 -0.143014   1.53372 255 255 255
-0.0456644  -0.184689    1.49114 255 255 255
-0.277364   0.43914   1.36374 255 255 255
-4.77861 -1.61965  7.00304 255 255 255
   0.102361 -0.00162128     1.56226 255 255 255
 -0.145011 -0.0205584    1.48579 255 255 255
-1.47306 -1.81437  2.87742 255 255 255
-0.330152  0.412315   1.32256 255 255 255
  0.122843 -0.0115749    1.56597 255 255 255
0.132581 0.103487  1.55733 255 255 255
-0.330853  0.321001   1.48487 255 255 255
0.170621 0.105058  1.58416 255 255 255
-0.339406  0.441223   1.30072 255 255 255
0.0920537  0.066436   1.51061 255 255 255
0.150076 0.171267  1.55477 255 255 255
-0.325171  0.421884   1.35857 255 255 255
-0.159362   1.21921   5.99833 255 255 255
  -0.171859 0.000386464      1.4995 255 255 255
-0.0987604   0.288024    1.50452 255 255 255
0.00772304   0.522992    1.87382 255 255 255
0.250675 0.423765  2.00376 255 255 255
-0.356155  0.301252   1.57524 255 255 255
0.00757874   0.569358    1.74827 255 255 255
-4.55864 -1.59636  6.98697 255 255 255
-0.409533   1.32187   5.89653 255 255 255
  0.178584 -0.0656168    1.67846 255 255 255
-0.319319  0.426479   1.39787 255 255 255
 0.124329 -0.275605   1.67228 255 255 255
 0.144641 -0.211878   1.72425 255 255 255
-0.364292  0.373928   1.37902 255 255 255
-0.0926024    0.53538     1.4768 255 255 255
-0.102666  0.541463   1.49462 255 255 255
-0.547227  0.390193   1.51438 255 255 255
-0.212172   0.46451   1.41713 255 255 255
0.0268746  0.571502   2.00726 255 255 255
-0.0811374    0.21591    1.50108 255 255 255
-1.42557 -1.71947  2.86636 255 255 255
-0.384584  0.290832     1.563 255 255 255
 0.159914 -0.123182   1.73863 255 255 255
-0.185067 -0.252166   1.52783 255 255 255
-0.0136332   0.144043     1.4813 255 255 255
-0.107934 -0.100181   1.47488 255 255 255
0.115226 0.159933  1.51637 255 255 255
-0.0134242   0.492117    1.84695 255 255 255
-0.150824 -0.194265   1.49305 255 255 255
-4.81999 -1.69987   7.1359 255 255 255
-0.215283   1.47696   5.81987 255 255 255
0.162444  0.13696    1.567 255 255 255
0.0134764  0.543359   1.83053 255 255 255
-0.0824829   0.536464    1.53005 255 255 255
-0.0480064   0.500597    1.75585 255 255 255
-0.0284276   0.489913    1.79938 255 255 255
0.00563706   0.554537    1.67977 255 255 255
-0.0576548  -0.227558    1.51575 255 255 255
0.00890633   0.525929    1.82222 255 255 255
-0.237734  0.443831   1.39671 255 255 255
 0.18955 0.166504  1.56696 255 255 255
-0.116694 -0.241702   1.52073 255 255 255
0.188227 0.133136  1.62005 255 255 255
 0.13089 0.271649  1.53748 255 255 255
-0.357209  0.298893   1.55996 255 255 255
-0.0889748   -0.25961    1.51605 255 255 255
-1.54164 -1.91599   2.9466 255 255 255
-0.307377  0.388293    1.3885 255 255 255
0.143066 0.256269  1.54425 255 255 255
-0.201747 -0.119161   1.50052 255 255 255
-0.0241653    0.23933    1.50294 255 255 255
-0.0292716   0.241188    1.51246 255 255 255
-0.372411   1.27466   6.01416 255 255 255
-0.0745618   0.534018    1.55203 255 255 255
-0.0802923   0.533081     1.5022 255 255 255
-0.0693218  -0.199432    1.48163 255 255 255
  0.102695 -0.0119719    1.51961 255 255 255
-0.240861 -0.306721   1.59246 255 255 255
-0.318406  0.437441   1.29527 255 255 255
-0.0546392  -0.362541    1.66836 255 255 255
 -0.2354 0.440995  1.43261 255 255 255
-0.100883  0.447642   1.93748 255 255 255
-0.0260455   0.198575     1.4885 255 255 255
-0.120834  0.483868   1.48205 255 255 255
-0.246276  0.438869   1.37336 255 255 255
 0.16947 -1.51547  5.60175 255 255 255
-0.0310752   0.135166     1.4792 255 255 255
-0.12438 0.480855  1.47724 255 255 255
-0.360754  0.422207   1.36921 255 255 255
-0.072357 0.0665056   1.47516 255 255 255
0.0340557  0.582849   2.01451 255 255 255
 -0.16389 -0.197188    1.4987 255 255 255
-0.0685907  -0.208162    1.48683 255 255 255
  0.123901 -0.0162197    1.53577 255 255 255
-5.18371 -1.99016   7.2879 255 255 255
-5.05338 -1.77926  7.22471 255 255 255
-0.266194  0.424539   1.42986 255 255 255
-0.196984  0.489453   1.39548 255 255 255
0.00166445  -0.170542    1.49655 255 255 255
-0.126068  0.250803   1.52022 255 255 255
-0.062892  0.313367    1.5569 255 255 255
-0.128358  0.527308   1.43916 255 255 255
  -0.053131 -0.00145805     1.46891 255 255 255
-0.339922  0.345285   1.44901 255 255 255
0.0225799 -0.344432   1.68291 255 255 255
-0.190715  0.426768   1.45786 255 255 255
-0.303825  0.377086   1.95171 255 255 255
 0.14444 0.147519  1.59523 255 255 255
0.120779  0.25411  1.59399 255 255 255
-0.244829   0.39684   1.43674 255 255 255
   0.15208 -0.0714903    1.59119 255 255 255
-0.0490704  0.0608636    1.93035 255 255 255
  0.108244 -0.0598167    1.53735 255 255 255
0.0150071  0.506877   1.83904 255 255 255
-0.124237  0.391635    1.8086 255 255 255
0.138537 0.283994  1.59061 255 255 255
-0.324334  0.376023   1.36741 255 255 255
  0.151163 0.00533459    1.64003 255 255 255
-0.235207  0.431041   2.03926 255 255 255
-0.262996  0.477496   1.21626 255 255 255
-0.0642096   0.520988    1.93451 255 255 255
-0.155432  0.438157   1.51508 255 255 255
-0.239603  0.447001   1.37131 255 255 255
0.157716 0.171738  1.62836 255 255 255
 0.344868 -0.165671   1.90537 255 255 255
-0.327158  0.457466   1.23287 255 255 255
-0.37882  0.40047  1.30505 255 255 255
0.0805458  0.296878   1.64808 255 255 255
0.146309 0.261331   1.5769 255 255 255
-0.116867  0.498059   1.97241 255 255 255
-0.118378  0.531047   2.16123 255 255 255
-0.069504 0.0206595   1.95891 255 255 255
-0.21434 0.381261  1.93825 255 255 255
      0.141 -0.00245421     1.67939 255 255 255
-0.202787  0.299297   1.84795 255 255 255
0.152048 0.156978  1.55515 255 255 255
0.138544 0.269414  1.58554 255 255 255
-0.215605  0.450742   2.03581 255 255 255
-0.257943  0.463013   1.27634 255 255 255
 -0.001148 0.00841304     1.8757 255 255 255
0.134678 0.290939  1.59896 255 255 255
0.122116 0.290843  1.59095 255 255 255
-2.00239 -2.00977  1.98177 255 255 255
-0.00623595   -0.226432     1.88306 255 255 255
 -0.04654 0.0298298   1.89759 255 255 255
-0.136752  0.499536   2.06304 255 255 255
-0.0894355   0.506891    2.01901 255 255 255
0.0537502  0.258826    1.7498 255 255 255
-0.0994673   0.476665    1.84685 255 255 255
0.0160244  0.315028   1.67813 255 255 255
-0.23552 0.366738  1.92747 255 255 255
  0.125802 -0.0879445    1.82618 255 255 255
-0.0801791   0.492993    1.67406 255 255 255
-0.0665282   0.135342    1.86679 255 255 255
 0.128166 -0.145276   1.83311 255 255 255
0.135004 0.268454  1.58386 255 255 255
-0.200799  0.450133   2.05282 255 255 255
0.171697 0.170458  1.56768 255 255 255
0.0867699 -0.198055   1.84705 255 255 255
0.0750417 -0.168791   1.86052 255 255 255
-0.0938283   0.466015    1.77162 255 255 255
-0.339139  0.417932   1.29044 255 255 255
0.0659595  0.307296   1.62648 255 255 255
  0.043886 0.00262699    1.86354 255 255 255
-0.159794  0.437501   1.98252 255 255 255
0.0723156 -0.181034   1.85713 255 255 255
0.131897 0.203978  1.73801 255 255 255
0.00528912  -0.192778    1.92142 255 255 255
-0.0405327   0.372743    1.63728 255 255 255
-0.0815256   0.375732    1.57353 255 255 255
0.184262 0.166322  1.58125 255 255 255
 0.12475 0.257038  1.55433 255 255 255
0.0577178 -0.152132   1.86874 255 255 255
-0.197007  0.397377    1.9456 255 255 255
  0.187199 -0.0577355    1.63249 255 255 255
-0.152601  0.496611   2.12224 255 255 255
0.196071 0.185508   1.6755 255 255 255
-0.161101  0.454275   2.04757 255 255 255
-0.261053   0.10942    1.8671 255 255 255
 0.130031 -0.258556   1.69877 255 255 255
0.0495465 -0.191876   1.88213 255 255 255
-0.0982633   0.504538    2.09303 255 255 255
-0.120173    0.4859   2.06223 255 255 255
 0.121281 -0.189569    1.7887 255 255 255
-0.0842384   0.499613    1.61061 255 255 255
-0.133184  0.431114   1.84358 255 255 255
-0.0443841  -0.285671    1.89572 255 255 255
0.133262 -0.20477  1.79327 255 255 255
-0.213629  0.428687   1.45092 255 255 255
 0.0581251 -0.0145367    1.86316 255 255 255
-0.0934223   0.481549    1.64055 255 255 255
-0.185046  0.470963   1.46065 255 255 255
 0.0967134 -0.0371139    1.85752 255 255 255
-0.0368476 -0.0830278     1.9451 255 255 255
-0.0013802   -0.22261    1.90439 255 255 255
-0.169832    0.4125    1.9419 255 255 255
-0.24883 0.263372  1.82855 255 255 255
0.136437  0.23527  1.58432 255 255 255
