ply
format ascii 1.0
element vertex 1140
property float x
property float y
property float z
property uchar red
property uchar green
property uchar blue
end_header
 -0.109087 -0.0698159    1.48197 255 255 255
  -0.27748 -0.0442256    1.54578 255 255 255
-0.0585379  0.0893196    1.47528 255 255 255
-0.269841  0.469623   1.29364 255 255 255
-0.389134  0.335272   1.48647 255 255 255
0.242762 -1.54002  5.53865 255 255 255
 0.22489 -1.44472  5.59851 255 255 255
-0.0782197 -0.0314564    1.48038 255 255 255
-0.092172 -0.116819    1.4752 255 255 255
-0.155417  0.411081   1.49328 255 255 255
0.782351  1.90409  4.51184 255 255 255
-0.0172362   0.172047    1.48368 255 255 255
 0.167888 0.0214974   1.60273 255 255 255
-0.0674197  -0.196562    1.48044 255 255 255
-0.120356  -0.17832   1.47735 255 255 255
-0.0688122   0.573313    1.46342 255 255 255
0.0830706  0.252283   1.53156 255 255 255
-0.0336064   0.193776    1.49136 255 255 255
0.908469 -1.37259  5.29986 255 255 255
-0.323657  0.330988   1.46975 255 255 255
-0.28698  0.40724  1.38761 255 255 255
-0.0918318   0.527662    1.46793 255 255 255
-0.0600635   0.245288    1.51473 255 255 255
-0.0501968   0.583271    1.49893 255 255 255
-0.110892   0.50297   1.48431 255 255 255
-0.212829  0.486724   1.32162 255 255 255
-0.333996  0.376152   1.39527 255 255 255
 -0.181196 -0.0830777    1.48812 255 255 255
-0.222087  0.434176   1.40632 255 255 255
-0.0539727   0.129119    1.47918 255 255 255
-0.0401149   0.524514    1.66062 255 255 255
0.835838  1.90042  4.49467 255 255 255
-0.33415 0.402509  1.36882 255 255 255
-0.0467718   0.518234    1.65252 255 255 255
-0.0227574  -0.137152    1.47622 255 255 255
-0.286718  0.420338   1.38266 255 255 255
-1.70627 -1.61125  5.69618 255 255 255
-0.240498  0.428936   1.38375 255 255 255
-0.133288  0.525884   1.39965 255 255 255
-0.190751  0.457225   1.38996 255 255 255
0.220406 -1.60674  5.62481 255 255 255
-0.251945   0.40858   1.41764 255 255 255
-0.093815  -0.15595   1.47368 255 255 255
-0.295047   0.34887   1.46738 255 255 255
-0.211355  0.441549   1.40284 255 255 255
-0.159729 -0.196257   1.49215 255 255 255
-0.326327   0.32717   1.47467 255 255 255
-0.192228  0.394448   1.47915 255 255 255
0.0430878  0.152727   1.49657 255 255 255
-0.0455326   0.479099    1.82117 255 255 255
  0.0444397 -0.00502625      1.4929 255 255 255
0.259853 -1.39686  5.59341 255 255 255
0.0928439  0.146248   1.50554 255 255 255
-0.146435  0.480994   1.43736 255 255 255
 0.126728 -0.210019    1.7567 255 255 255
 0.121187 -0.179964   1.73867 255 255 255
 -5.5964 -1.93033  7.82112 255 255 255
-0.0159123   0.509614    1.77041 255 255 255
0.309926 -1.47967  5.69295 255 255 255
-0.28648 0.374532  1.45938 255 255 255
-0.308221  0.386544   1.41724 255 255 255
-0.163182  0.443928   1.47871 255 255 255
-0.162393  0.443724   1.47709 255 255 255
-0.243149  0.482478   1.30873 255 255 255
 -0.1543 0.473768  1.41966 255 255 255
0.0773209  0.618192   1.90115 255 255 255
-0.214296 -0.185273   5.16501 255 255 255
-0.157959  0.437081   1.48797 255 255 255
-0.0962376 -0.0589743    1.49413 255 255 255
-0.00290927    0.519211     1.77666 255 255 255
-0.307734  0.386642   1.39671 255 255 255
-1.59762 -1.75003  3.03044 255 255 255
-0.0589081   0.518698     1.5376 255 255 255
-5.26766 -1.93974  7.64125 255 255 255
-0.196701 -0.335297   1.63469 255 255 255
-0.153202    1.6107   5.92265 255 255 255
0.0290213  0.545358    1.8767 255 255 255
0.0992615   1.05335   5.86445 255 255 255
0.0388152  0.607969   1.77406 255 255 255
-0.0912609   0.481761     1.5682 255 255 255
-0.894097  0.737497    6.2549 255 255 255
-1.01222 0.735573  6.26922 255 255 255
0.0846559   1.31359   5.98598 255 255 255
-0.261298   1.23922   5.87623 255 255 255
0.215649  -1.5047  5.59127 255 255 255
-5.98968 -1.74576  7.92798 255 255 255
-0.412165   1.59901   6.02108 255 255 255
-0.691496    1.5391   5.92554 255 255 255
-0.165766   1.54413   5.81546 255 255 255
-0.231548 -0.326299    1.6244 255 255 255
-0.0968761   0.520413    1.49893 255 255 255
0.0362284   1.70358   5.81447 255 255 255
-0.13891  1.58282  5.99906 255 255 255
-0.588615   1.99777   5.76475 255 255 255
-0.0116675    0.53703    1.68881 255 255 255
-0.10503  0.99267  5.98375 255 255 255
-0.442037   1.58022   5.84695 255 255 255
-0.0411701    0.53429    1.64651 255 255 255
-0.133846   1.45051   6.01701 255 255 255
-0.207084   1.54941   5.96911 255 255 255
0.0133696  0.589054   1.68007 255 255 255
-5.76474 -1.85628  7.83443 255 255 255
-0.0113629   0.571436    1.65332 255 255 255
-0.164288 0.0369538    1.4851 255 255 255
-0.10269 0.511181  1.49725 255 255 255
-5.61575  -1.7568  7.71866 255 255 255
-1.43682 -1.63205  3.05689 255 255 255
-0.661168    1.8531   5.82021 255 255 255
-0.539989   1.75385   5.81138 255 255 255
-0.120182  0.489692    1.4897 255 255 255
-0.21978  1.50333  5.83907 255 255 255
-0.77762  1.54164  5.99156 255 255 255
0.165529 0.118304  1.58338 255 255 255
-0.681439   1.28815   6.04237 255 255 255
0.114094 0.934442  5.88602 255 255 255
-0.0446422    0.10437    1.47624 255 255 255
-0.662961   1.87213   5.77309 255 255 255
 -0.3156 0.375053  1.44317 255 255 255
-0.923754  0.964372    6.1871 255 255 255
  0.128964 -0.0357634    1.52031 255 255 255
-0.0533203     1.5957    5.89926 255 255 255
-1.07355 0.800028  6.26231 255 255 255
-0.642058   1.01524   6.08426 255 255 255
-0.209691    0.4496   1.38165 255 255 255
-0.0623512   0.491733    1.62345 255 255 255
-0.0675434  -0.160317    1.47846 255 255 255
-0.104485  0.511498   1.48843 255 255 255
-0.0555505   0.110303    1.47762 255 255 255
-0.0830854   0.268183    1.52964 255 255 255
-0.0896885   0.501741    1.48965 255 255 255
-0.489933  0.804292   6.10471 255 255 255
0.0964977  0.163552   1.51062 255 255 255
-0.104257  0.123043   1.48694 255 255 255
-0.418978   1.33621   5.92162 255 255 255
0.0265541 -0.185122   1.50225 255 255 255
0.0329666  0.604868   1.77863 255 255 255
-0.110227  0.477789   1.47929 255 255 255
-0.0776554  -0.102094    1.47773 255 255 255
-0.0714877   0.329832    1.55379 255 255 255
-0.255672     1.056   5.95835 255 255 255
-0.0677563 -0.0427107    1.48223 255 255 255
-0.939636  0.731048   6.24672 255 255 255
-0.113876  0.494579    1.4732 255 255 255
-0.0975723   0.480851    1.55067 255 255 255
-0.181094   1.34203    5.8563 255 255 255
0.000492071    0.142638     1.48224 255 255 255
 -5.8675 -2.05224  7.92647 255 255 255
-0.0640481   0.450793    1.87584 255 255 255
-0.141203  0.511343   1.40374 255 255 255
-0.135075  0.465459   1.47781 255 255 255
-0.454251   1.16589   5.98134 255 255 255
0.0441096 -0.301995   1.62007 255 255 255
-0.186508  0.293487   1.49743 255 255 255
-0.595356  0.734984   6.12647 255 255 255
-0.109329  0.508888   1.48457 255 255 255
0.0940091   1.69903   4.84483 255 255 255
-0.00825526    0.211572     1.50098 255 255 255
-0.0232559   0.549401    1.63944 255 255 255
-0.07015 0.497946   1.5656 255 255 255
-0.31835 0.366055  1.43863 255 255 255
-0.101507  0.500925   1.46336 255 255 255
-0.0759195  0.0761439    1.47809 255 255 255
-0.174939  0.403311   1.48571 255 255 255
-0.102481  0.264755   1.52112 255 255 255
-1.59787 -1.66953  3.28636 255 255 255
-0.154435  0.462788   1.46475 255 255 255
-0.222266  0.403774   1.47076 255 255 255
0.215679 -1.55163  5.58965 255 255 255
-0.0551214   0.134347     1.4823 255 255 255
0.210735 -1.65497  5.64596 255 255 255
0.337373 -1.35044  5.58309 255 255 255
-4.73563 0.589581  6.81667 255 255 255
-0.320132  0.380868   1.41581 255 255 255
0.047416  1.76128  5.03446 255 255 255
-0.00418144   -0.089898     1.48041 255 255 255
-0.791432   1.23089   6.08111 255 255 255
0.121247  1.03104    5.871 255 255 255
0.303623 0.233813  1.21716 255 255 255
-0.126129  0.440233   1.52925 255 255 255
-0.24785 0.432267  1.40531 255 255 255
-0.248802  0.380028   1.46624 255 255 255
-0.648896   2.17137   5.62484 255 255 255
0.020186 0.178816   1.4921 255 255 255
 -0.555652 -0.0622703    1.61385 255 255 255
-0.00745585    0.133809     1.47875 255 255 255
-0.0340618 -0.0435005    1.47775 255 255 255
-0.199334  0.444323    1.4377 255 255 255
-0.0469504   0.520995    1.68273 255 255 255
-0.0586182 0.00253944    1.47226 255 255 255
0.114626  1.39048  5.95432 255 255 255
 -5.2095 -1.79639  7.59905 255 255 255
-0.0744773  0.0261155    1.47705 255 255 255
 0.14156 0.248638  1.55533 255 255 255
0.00823639    1.72698    5.82696 255 255 255
0.230404 0.327621  1.51225 255 255 255
0.0411966  0.580451   2.02082 255 255 255
-0.0260123 -0.0279195    1.47301 255 255 255
0.151925 -1.64443  5.73381 255 255 255
-0.174574  0.412642   1.48446 255 255 255
-0.529833   1.99898   5.71849 255 255 255
-0.476625   1.92041   5.78107 255 255 255
-0.253058  0.474047   1.31417 255 255 255
-0.0342594   0.154607    1.48115 255 255 255
-0.242162  0.410094   1.45084 255 255 255
-0.112841  0.258695   1.51902 255 255 255
-0.336422  0.386118   1.38299 255 255 255
-0.608018   0.93324   6.07509 255 255 255
-0.000287803    -0.207139      1.50304 255 255 255
  0.157477 -0.0256515    1.76767 255 255 255
 0.112996 -0.124896   1.63882 255 255 255
-0.189402  0.440047   1.94172 255 255 255
-0.0599405  -0.312697    1.65052 255 255 255
0.0922437   0.29644   1.67547 255 255 255
-0.0636427   0.533872    1.59488 255 255 255
-0.244635  0.447066    1.3749 255 255 255
 0.0783717 0.00333269    1.81122 255 255 255
-0.0465525   0.530575    1.67899 255 255 255
-0.0493016   0.475168    1.66918 255 255 255
0.160461 0.213228  1.64413 255 255 255
-0.0639126   0.518066    1.64655 255 255 255
 0.188722 0.0367148   1.60339 255 255 255
  0.166206 -0.0100201    1.71401 255 255 255
-0.0851769   0.441702    1.77708 255 255 255
-1.46123 -1.72321  3.26094 255 255 255
-0.300649   0.42389   1.43219 255 255 255
-0.0635956    0.48445    2.01831 255 255 255
   0.101696 -0.00181068     1.54888 255 255 255
-0.0633504   0.482893    1.79453 255 255 255
-0.232169   0.50995   1.34678 255 255 255
-0.0839917   0.478884    1.72802 255 255 255
 0.19098 0.165237  1.61649 255 255 255
  -1.473 -1.72818  3.09707 255 255 255
-0.0527704   0.497107     1.7719 255 255 255
 0.146063 0.0257822   1.65939 255 255 255
-0.0676661   0.485288    1.84489 255 255 255
0.0996258 -0.275506   1.70196 255 255 255
-0.303204  0.418324   1.39289 255 255 255
-1.94762 -1.87573  2.68246 255 255 255
-0.0569475   0.435333    1.85584 255 255 255
-0.0645808   0.512235    1.70045 255 255 255
-0.154546  0.471781   1.45404 255 255 255
0.138595 0.276265  1.57442 255 255 255
-0.0367011   0.497404    1.96436 255 255 255
-0.273148  0.439525   1.33938 255 255 255
 0.145533 0.0064771   1.67012 255 255 255
-0.155218  0.484525    1.4321 255 255 255
-0.0568216   0.543839    1.64225 255 255 255
0.0227621   0.57926    1.9037 255 255 255
  0.168049 -0.0436388    1.58257 255 255 255
-2.23097 -1.86517  2.83765 255 255 255
-2.57536  -1.8329  2.93533 255 255 255
-0.0616416   0.493373    1.85736 255 255 255
0.113437 0.286492  1.67223 255 255 255
-0.0231827 0.00901957    1.89391 255 255 255
0.195887  0.11072  1.56465 255 255 255
-0.0950148    0.46134    1.81437 255 255 255
-0.218448  0.348914   1.88734 255 255 255
-1.90944 -2.27596  2.74446 255 255 255
-0.398653  0.404503   1.27874 255 255 255
0.0542175 -0.290987     1.647 255 255 255
0.0365248  0.574113   1.84791 255 255 255
-0.136368  0.428898    1.8793 255 255 255
-0.160574   0.53368   1.37585 255 255 255
-0.258538  0.454116   1.34819 255 255 255
-0.247353  0.522223   1.32867 255 255 255
-0.25225 0.429372  1.42134 255 255 255
-0.0513646   0.523156    1.66433 255 255 255
0.206796 0.115783  1.61685 255 255 255
-0.0337483   0.474833    1.95285 255 255 255
-0.108221  0.461639    1.9912 255 255 255
-0.334717  0.444371   1.28161 255 255 255
-0.0020954   0.504771    1.94863 255 255 255
 0.0972927 -0.0120353    1.80747 255 255 255
-0.0544388   0.522299    1.84447 255 255 255
-1.39228 -1.66004  3.10451 255 255 255
-0.207301   0.44835    1.4214 255 255 255
  0.1593 0.110967   1.5637 255 255 255
-0.0677113   -0.17179    1.94717 255 255 255
 -0.3605 0.441614  1.26576 255 255 255
 0.155273 -0.191837   1.65649 255 255 255
-0.0274866   0.541515    1.83626 255 255 255
0.029905 0.318443  1.65793 255 255 255
-0.244164  0.370952   1.90533 255 255 255
0.0884097  0.301938   1.66465 255 255 255
-1.85483 -2.32633  2.89658 255 255 255
-0.0969502   0.459575    1.80217 255 255 255
-0.130067  0.506381   1.45823 255 255 255
 0.11317 0.179772  1.53182 255 255 255
-1.83872 -1.86567   2.0397 255 255 255
-0.330165  0.457174   1.25417 255 255 255
-0.177191  0.512134   1.38452 255 255 255
-0.19335 0.509781  1.37664 255 255 255
-0.102517   0.46073   1.80455 255 255 255
-0.0780206   0.538841    1.55508 255 255 255
-0.0704266   0.482702    1.86232 255 255 255
-0.0764975   0.469161    1.85244 255 255 255
-0.187079  0.449411   1.48209 255 255 255
-0.0170346   0.558172      1.706 255 255 255
-0.307233   0.33073   1.49889 255 255 255
0.152639 0.285345  1.62321 255 255 255
 -1.5726 -1.67126  3.27503 255 255 255
-0.0262259   0.526149    1.83436 255 255 255
-0.186524  0.507965   1.34387 255 255 255
  0.168621 -0.0219612    1.69875 255 255 255
-0.034026   0.55631   1.62041 255 255 255
-0.20283 0.522934  1.32297 255 255 255
0.155029 0.204553  1.59427 255 255 255
-1.48022 -1.64467  3.19655 255 255 255
-0.0836807    0.50251     1.6185 255 255 255
-1.55711 -1.64017   3.2529 255 255 255
-0.328798   0.45397   1.27457 255 255 255
0.0347217  0.569212   1.84286 255 255 255
0.0792762  0.295087   1.68354 255 255 255
 0.074941 -0.239551   1.68787 255 255 255
-0.0992807   0.534708    1.50396 255 255 255
-2.03172 -1.86088   1.9109 255 255 255
-0.107915  0.454496    1.8924 255 255 255
-0.10349 0.449618  1.89378 255 255 255
  0.158084 -0.0356892     1.5801 255 255 255
  0.16008 0.0361817   1.70876 255 255 255
0.0190915  0.554846   1.85585 255 255 255
 -0.1326 0.531538  1.38569 255 255 255
-1.34566 -1.62232  3.06321 255 255 255
-0.200307  0.446935   1.45165 255 255 255
-0.148715  0.497435   1.44102 255 255 255
0.151002 0.260715  1.56322 255 255 255
 -0.1314 0.525493  1.43961 255 255 255
 -2.0691 -1.84905  2.00942 255 255 255
0.153212 0.181741  1.69774 255 255 255
-0.141729  0.518122   1.49381 255 255 255
  0.170347 -0.0258554    1.65018 255 255 255
-0.0366219    0.53392     1.7626 255 255 255
0.157784 0.229121  1.61456 255 255 255
-0.128198 0.0756875   1.94104 255 255 255
-0.0686304   0.451659    1.63941 255 255 255
-0.0686304   0.451659    1.63941 255 255 255
-1.62842 -1.75487  3.07426 255 255 255
-0.056978  0.412976   1.60419 255 255 255
-0.0146529   0.540734    1.95152 255 255 255
0.102801 0.297995  1.59828 255 255 255
0.0283568  0.291745   1.55815 255 255 255
-0.282391  0.393793   1.44564 255 255 255
-2.04371 -1.88429  2.16687 255 255 255
-0.206197  0.440831   1.42325 255 255 255
-0.100715  0.534259   1.51706 255 255 255
0.0671855 -0.285129   1.72589 255 255 255
-0.311224  0.365772   1.45057 255 255 255
-1.40752 -1.74029   3.0806 255 255 255
-1.43924 -1.84484   3.0738 255 255 255
 -2.4609 -1.92408  2.90809 255 255 255
-2.59799 -2.01272  3.06355 255 255 255
-0.221516  0.519816   1.32127 255 255 255
0.0306222   0.58015   1.84045 255 255 255
-0.0300242   0.534733     1.7458 255 255 255
-0.0389749   0.564997    1.65912 255 255 255
-0.139548  0.532127    1.4348 255 255 255
  0.12845 -0.185553   1.65431 255 255 255
-0.00301412    0.543384     1.88212 255 255 255
-1.33535 -1.61998  3.07206 255 255 255
-1.61213 -1.71778  3.25408 255 255 255
0.171307 0.254679  1.61242 255 255 255
-0.0333062      0.561    1.68783 255 255 255
-1.58943 -1.67176  3.02536 255 255 255
-0.0694366   0.485334    1.70247 255 255 255
-0.0827556   0.500898    1.70051 255 255 255
  0.167178 -0.0426523    1.70662 255 255 255
0.173414 0.191793  1.57006 255 255 255
-0.0987243   0.456352    1.82586 255 255 255
-0.0636978   0.530202    1.63984 255 255 255
 0.131067 -0.219666   1.67786 255 255 255
-1.87055 -1.88304  2.06733 255 255 255
-1.59062  -1.6506  3.29235 255 255 255
-0.297101  0.405111   1.43439 255 255 255
-0.0259041   0.567622    1.71116 255 255 255
-1.60762 -1.78235  3.01008 255 255 255
  0.192654 -0.0342007    1.63585 255 255 255
-0.136581  0.494367   1.48571 255 255 255
 0.112901 0.0213534   1.53959 255 255 255
0.191714 0.163062  1.60083 255 255 255
0.180417 0.164407  1.64482 255 255 255
0.0507237  0.306559   1.57877 255 255 255
  0.117762 0.00435483    1.67903 255 255 255
-1.94367 -1.77111   1.9045 255 255 255
0.0460516  0.571522   1.85289 255 255 255
0.113498 0.228007  1.53759 255 255 255
-0.0595616   0.530583    1.65186 255 255 255
0.144279  0.26396   1.6625 255 255 255
0.158498 0.236987  1.65864 255 255 255
-0.128076  0.510989   1.48541 255 255 255
-0.094459   0.46588   1.56869 255 255 255
-0.172409  0.482909   1.41826 255 255 255
0.0819142  0.301564   1.63736 255 255 255
0.177323 0.198674  1.59529 255 255 255
-0.123372  0.472608   2.02249 255 255 255
-0.0331736   0.538152     1.7543 255 255 255
-0.191081  0.504534   1.34751 255 255 255
-0.329939   0.44595   1.27891 255 255 255
-0.082485  0.555621   1.52373 255 255 255
-0.32479 0.387846   1.4059 255 255 255
-0.0541269   0.514321    1.60043 255 255 255
-2.02306 -1.92298  1.88885 255 255 255
-0.103313  0.495116   1.58623 255 255 255
  0.144864 0.00183045    1.71104 255 255 255
-0.126844   0.47426    1.5696 255 255 255
0.193501 0.173559  1.57795 255 255 255
 -1.9169 -1.81118   2.1014 255 255 255
  0.101318 -0.0102331    1.55685 255 255 255
-0.067604  0.314382   1.56126 255 255 255
0.113213 0.235537  1.54042 255 255 255
  -2.608 -1.85671  3.05096 255 255 255
-0.0718618   0.498387    1.68639 255 255 255
-2.58945 -2.00333  2.94576 255 255 255
0.187085  0.13499  1.58548 255 255 255
0.152649 0.247653  1.57342 255 255 255
-1.96982 -1.98231  2.10208 255 255 255
-2.01685 -1.93004  1.88835 255 255 255
0.0968608 -0.143488   1.58533 255 255 255
   0.221828 -0.00931904     1.64831 255 255 255
-0.227197  0.089618   1.51163 255 255 255
1.08548 1.52561 4.55746 255 255 255
0.0207713 0.0530695   1.46545 255 255 255
 1.43256 -1.47517   4.9898 255 255 255
 -0.0200365 -0.00863694     1.47732 255 255 255
-0.150161 0.0665652   1.47533 255 255 255
0.00132067 -0.0872448    1.48425 255 255 255
 -0.20943 -0.260076   1.57989 255 255 255
1.41926 1.46372 4.87231 255 255 255
-0.352979  0.394182   1.37086 255 255 255
0.192138 0.150501  1.62521 255 255 255
-0.0348256 -0.0378459    1.47599 255 255 255
 -0.172989 -0.0241902    1.47187 255 255 255
  -0.18159 -0.0878486    1.48946 255 255 255
 1.48458 -1.36438  4.99306 255 255 255
-0.0188953   0.604567    1.54158 255 255 255
-0.126986  0.425249   1.52161 255 255 255
1.37332   1.511 4.76447 255 255 255
0.151396 0.226014  1.63062 255 255 255
   0.09631 -0.0614752    1.50563 255 255 255
1.45391 1.40352 4.78189 255 255 255
 -0.183041 -0.0102953    1.46583 255 255 255
-0.221587  0.450933   1.34065 255 255 255
-0.0535365    0.57953    1.52705 255 255 255
-0.0382527   0.593112    1.52074 255 255 255
-0.066763  0.321985   1.55696 255 255 255
0.869144 -1.27991  5.31933 255 255 255
-0.286566  0.400996   1.39331 255 255 255
0.809838  1.79312  4.54807 255 255 255
-0.0254936 -0.0234916    1.47878 255 255 255
-0.24039 0.342809  1.48068 255 255 255
-0.196783  0.363302   1.48471 255 255 255
-0.173113 0.0869146   1.51117 255 255 255
0.175487 0.103756   1.5557 255 255 255
0.0329227  0.572802   1.76686 255 255 255
-0.34969  0.40572  1.37972 255 255 255
 -0.272683 -0.0432184    1.52979 255 255 255
-0.208055  -0.16587   1.50449 255 255 255
-0.229804 -0.188214   1.52027 255 255 255
 1.33025 -1.65173  5.13513 255 255 255
-0.218506  -0.18933   1.51348 255 255 255
-2.00426 -1.87719   6.4784 255 255 255
-0.27799 0.421319  1.38822 255 255 255
1.51018 1.39268 4.61954 255 255 255
 1.53618 -1.43935   4.9354 255 255 255
-0.245954  0.348977   1.46101 255 255 255
-0.254776   0.35841   1.47048 255 255 255
0.742861 -1.68341  5.47771 255 255 255
-0.0147421   -0.10078    1.47508 255 255 255
-0.183194 -0.223005   1.50257 255 255 255
-0.334807  0.410441   1.36413 255 255 255
-0.112452 -0.183029   1.47863 255 255 255
    -0.247 -0.0120291    1.52673 255 255 255
-0.173008 -0.224258   1.49966 255 255 255
-0.070727  0.178905   1.48918 255 255 255
0.749088 -1.43805  5.32349 255 255 255
-0.219056 -0.173919   1.51034 255 255 255
0.418975 -1.78661   5.6142 255 255 255
 -0.16301 -0.107806   1.48138 255 255 255
0.909135  -1.2886  5.24139 255 255 255
0.61299 1.36168 5.71451 255 255 255
1.70546 1.43645 5.06818 255 255 255
0.115791 0.270616  1.55942 255 255 255
-0.0578967  -0.051505     1.4779 255 255 255
-0.320042  0.381714   1.41096 255 255 255
1.34887 1.47818 4.77978 255 255 255
-0.209064 -0.148132   1.50334 255 255 255
  0.117562 -0.0543783    1.51789 255 255 255
-0.148098  0.479832   1.47696 255 255 255
-0.346724  0.332413   1.51413 255 255 255
0.107436 0.184858  1.53893 255 255 255
-0.152514  0.454373   1.48366 255 255 255
0.173697 0.273985  1.52211 255 255 255
-0.129324   0.06076   1.48221 255 255 255
-0.0837348 -0.0947466    1.47918 255 255 255
-0.0525096  -0.148092    1.47478 255 255 255
-0.0598327 0.00783178    1.47155 255 255 255
-0.216581 -0.142307   1.50855 255 255 255
-2.01075 -1.65136  6.37966 255 255 255
-0.0601317   0.591819    1.47002 255 255 255
1.01037 1.23774 5.62384 255 255 255
-1.93242 -1.51624  6.31645 255 255 255
-0.0738679    0.28173    1.52828 255 255 255
-0.193218  0.376606   1.48286 255 255 255
1.13301 1.31777 5.72184 255 255 255
1.47709 1.45392 5.42553 255 255 255
-0.225668  0.437483   1.41937 255 255 255
-0.0720071  0.0348234    1.47177 255 255 255
-1.93853 -1.56749    6.345 255 255 255
-0.0455898 0.00487863    1.46869 255 255 255
-0.224847 -0.238325   1.53227 255 255 255
-1.07049 0.796267  6.24592 255 255 255
  -0.149 0.480271   1.4438 255 255 255
-0.115591  -0.10476   1.47844 255 255 255
0.969092 -1.33246  5.41698 255 255 255
-0.136391 -0.196521   1.48564 255 255 255
0.900469  1.47844  5.65116 255 255 255
-0.0445279   0.104597    1.47671 255 255 255
1.11235 1.01953 3.96053 255 255 255
 1.38958 -1.36024  5.08395 255 255 255
-0.161793  0.425462   1.49389 255 255 255
-0.276262  0.427847   1.38952 255 255 255
-0.328869  0.398571   1.37715 255 255 255
-0.174198 -0.168632   1.49051 255 255 255
-0.102226   0.26925    1.5204 255 255 255
-0.120766 -0.137584   1.47555 255 255 255
 1.41383 -1.31213  4.99593 255 255 255
-0.126723  0.544113   1.40092 255 255 255
-0.00480817    0.172119     1.48826 255 255 255
0.275332  -1.6773  5.69222 255 255 255
0.150736 0.127659  1.56057 255 255 255
-0.0803382 -0.0826817    1.47889 255 255 255
-0.0804107 -0.0826722    1.47855 255 255 255
-0.0404091 -0.0208204    1.47501 255 255 255
-0.173178 -0.138426   1.48554 255 255 255
-0.173252 -0.138347   1.48474 255 255 255
 0.138241 0.0610507   1.57897 255 255 255
0.0288122  0.142508   1.48188 255 255 255
-0.0460456   0.605676    1.48386 255 255 255
-0.236772 -0.197651   1.52314 255 255 255
-0.249318  0.432591   1.38688 255 255 255
-0.203719 -0.234024   1.51697 255 255 255
-0.0408582  -0.212746    1.48803 255 255 255
-0.0443705   0.159768    1.48272 255 255 255
 -0.128304 -0.0922212     1.4777 255 255 255
-0.148388 -0.116735   1.47634 255 255 255
 1.3323 1.40031 4.83168 255 255 255
 -0.1148 0.528438  1.44978 255 255 255
-0.0816387  -0.114049    1.47275 255 255 255
1.47004 1.43001 5.02145 255 255 255
-0.39798 0.392221  1.38569 255 255 255
1.10743 1.16829 5.69265 255 255 255
0.404224  0.57642  2.53734 255 255 255
-0.200356 -0.167953   1.50318 255 255 255
1.04716 1.28252 5.71627 255 255 255
0.0485642   0.26223   1.53731 255 255 255
1.65671 1.37859 5.04659 255 255 255
-0.0751916   0.240672    1.51607 255 255 255
0.346788   -1.854  5.64504 255 255 255
 0.01602 0.290718  1.54825 255 255 255
0.943342 -1.34944  5.29035 255 255 255
-0.096542  0.261964   1.51868 255 255 255
-0.352068  0.406209   1.30847 255 255 255
-0.387882  0.395502   1.37827 255 255 255
 0.29534 -1.90347  5.95727 255 255 255
-0.34098  0.43337   1.3167 255 255 255
-0.0341152  0.0748688    1.46693 255 255 255
 1.39645 -1.40119  5.10763 255 255 255
-0.197515 -0.138015   1.49823 255 255 255
0.0340925  -0.20824   1.51028 255 255 255
-1.90421 -1.70052  6.38986 255 255 255
0.394528 -1.85588  5.66825 255 255 255
-0.150973  0.512645   1.39792 255 255 255
-0.155245  -0.11793   1.47952 255 255 255
-0.442235  0.406124   1.37545 255 255 255
-0.0403131 -0.0140244    1.47152 255 255 255
 -1.8706 -1.56156  6.42402 255 255 255
0.0738093 -0.170646   1.51932 255 255 255
 1.52916 -1.25258  5.00934 255 255 255
0.843656 -1.41629  5.32001 255 255 255
-0.280649  0.426126   1.38248 255 255 255
-0.341614  0.406285    1.3111 255 255 255
-0.0548157   0.205568    1.49935 255 255 255
0.511958 -1.81665  5.76543 255 255 255
-0.197558  0.404392   1.47963 255 255 255
-0.0877675   0.168362    1.48725 255 255 255
1.02674 1.55387 4.79461 255 255 255
-0.055952  0.119153   1.47951 255 255 255
1.13985 1.07249 3.90911 255 255 255
1.68627 1.43139 4.94687 255 255 255
-0.165367  -0.19413   1.49725 255 255 255
-0.0614909   0.560155    1.52145 255 255 255
  0.4666 -1.80933  5.69072 255 255 255
0.717021  1.61631  5.64284 255 255 255
0.921025  1.81826  4.51415 255 255 255
-0.117168  0.166211   1.49472 255 255 255
-0.0104177   0.164848     1.4884 255 255 255
-0.205573  0.447903    1.4168 255 255 255
0.859789 -1.53912  5.21369 255 255 255
-0.332809  0.366033   1.42439 255 255 255
-0.0120641   0.173475    1.49133 255 255 255
-0.0679715   0.508378    1.56939 255 255 255
-0.250681  0.467511   1.33273 255 255 255
-0.267799  0.471434   1.32398 255 255 255
 -0.241045 -0.0545093    1.51641 255 255 255
0.891344   1.4521  5.66984 255 255 255
 1.31584 -1.35737  4.99792 255 255 255
 1.51909 -1.44359  4.91225 255 255 255
1.10344 1.19888 5.70656 255 255 255
-0.104018 -0.247908   1.50566 255 255 255
-0.137209 -0.120361   1.47618 255 255 255
-2.14657 -1.63586  5.82398 255 255 255
-0.346422  0.422201   1.31213 255 255 255
-0.287596  0.461196   1.31721 255 255 255
0.884607 -1.45268  5.28914 255 255 255
-0.256496  0.485527   1.32716 255 255 255
-0.185989 -0.236357    1.5057 255 255 255
-0.109186  0.128706   1.48916 255 255 255
-0.268293  0.386595   1.45182 255 255 255
-2.07197 -1.53768  6.43599 255 255 255
-0.0780893  0.0827857    1.47621 255 255 255
-0.252602  0.411652   1.42008 255 255 255
0.761626 -1.40274  5.30732 255 255 255
-0.249397 -0.220161   1.54149 255 255 255
-0.0421891  -0.144064    1.47425 255 255 255
-0.182736 -0.255135   1.67055 255 255 255
-0.0407812  0.0958967    1.49198 255 255 255
 -1.5257 -1.74368  3.01431 255 255 255
-0.0839185   0.457376    1.73693 255 255 255
0.0712348  0.708192   1.66784 255 255 255
-0.271391  0.399484   1.42293 255 255 255
-0.198774  0.450738   1.42156 255 255 255
0.0882483  -1.39899   5.83053 255 255 255
0.192573 0.116088  1.57637 255 255 255
  0.107506 -0.0461872    1.51251 255 255 255
-0.0671395   0.559373    1.51481 255 255 255
0.0145128  0.609198    1.6527 255 255 255
-0.907611  0.758611   6.26843 255 255 255
-0.0156843   0.548732     1.6363 255 255 255
-0.19192 0.402383  1.45409 255 255 255
-0.169395  -1.28032   5.56233 255 255 255
-1.13729 0.742384  6.23362 255 255 255
-0.167748  0.471097   1.41553 255 255 255
0.00537222   0.579424    1.63021 255 255 255
0.0713623  0.661451   1.81395 255 255 255
-0.0689672   0.572346    1.46942 255 255 255
-0.194048   0.49891   1.33427 255 255 255
-0.174323  0.420935   1.48115 255 255 255
-0.128492 0.0789998    1.4899 255 255 255
-0.342975  0.360426   1.43464 255 255 255
-0.139739   0.53517   1.38336 255 255 255
-0.00679359    0.649695     1.53789 255 255 255
-0.775167  0.742789   6.21772 255 255 255
  -0.141881 -0.00677943     1.50158 255 255 255
 0.11757 0.172821    1.526 255 255 255
0.0566218  0.608607   1.79788 255 255 255
0.0630611  0.604625   1.78145 255 255 255
-0.188926   1.51875   5.82328 255 255 255
-0.187359  0.484903   1.34808 255 255 255
-0.133416  0.547531   1.35879 255 255 255
-0.266357   0.33812   1.47732 255 255 255
-0.0528323   0.473191    1.95308 255 255 255
-0.168822  0.511204   1.36257 255 255 255
-0.480165   1.35791   6.01232 255 255 255
0.0344261  0.560836   2.00945 255 255 255
-0.00658456    0.474734      1.7982 255 255 255
-0.255613  0.413345   1.40604 255 255 255
0.00243099   0.632807    1.55154 255 255 255
-0.187394  0.521237   1.33063 255 255 255
-0.103589 -0.199181   1.49697 255 255 255
0.0994661    0.0153   1.54784 255 255 255
-0.25506  1.36176  5.85763 255 255 255
-0.00665973    0.654843     1.52753 255 255 255
-0.230208  0.431375   1.38881 255 255 255
-0.592215  0.812911   6.17404 255 255 255
-0.637718   1.44098   6.07124 255 255 255
-0.0450295    1.54369    5.97414 255 255 255
-0.00463517      0.5168     1.71208 255 255 255
-0.259561  0.443568   1.34938 255 255 255
-0.0576355    1.13194     5.9155 255 255 255
-0.15144 0.516906  1.37997 255 255 255
-0.296933  0.902095   6.00565 255 255 255
-0.262332  0.631804   5.10439 255 255 255
 0.125312 -0.244223   1.70479 255 255 255
-0.0377551  -0.187069    1.49274 255 255 255
-0.0540864   0.605086    1.45641 255 255 255
-0.329372  0.114622   4.76297 255 255 255
0.0647924  0.589866   1.91186 255 255 255
0.182528 0.125208  1.59729 255 255 255
-0.154941   0.48305   1.39319 255 255 255
  0.105448 0.00713698    1.52295 255 255 255
0.0131922  0.564426   1.69492 255 255 255
-0.0714337 -0.0323054    1.48159 255 255 255
-0.518236   1.43092   6.18234 255 255 255
  0.128326 -0.0561458    1.54019 255 255 255
0.00531172   0.597549    1.64811 255 255 255
0.131781 0.216846  1.56742 255 255 255
0.259157 -1.56748  5.54478 255 255 255
-1.44576 -1.79136  2.99069 255 255 255
-0.16458 0.476729  1.37721 255 255 255
0.00102482   0.545262    1.67023 255 255 255
-0.130065  0.494174   1.44613 255 255 255
0.022638 0.850486  2.31623 255 255 255
0.0174579  0.526363   1.84854 255 255 255
-0.0844715   0.556647    1.47666 255 255 255
-0.268211  0.460425   1.31939 255 255 255
-1.55254 -1.75022  3.01602 255 255 255
-0.18501 0.501879  1.34332 255 255 255
-0.116125  0.489248   1.48483 255 255 255
0.123353  0.63819  4.92062 255 255 255
-0.0878343   0.496628    1.55083 255 255 255
-0.0927923   0.497947    1.56086 255 255 255
 -0.162896 0.00604274    1.50396 255 255 255
-0.0916627 -0.0982316    1.48085 255 255 255
0.0293002  0.536295   1.77711 255 255 255
-0.042039  0.600798   1.49917 255 255 255
-0.196511    1.4094    5.9643 255 255 255
-0.0495764   0.560602    1.53102 255 255 255
-0.188636  0.515982   1.33225 255 255 255
-0.0499515   0.608781    1.46331 255 255 255
-0.055169  0.580715   1.49643 255 255 255
0.000775713     0.58289     1.62811 255 255 255
-0.0699472   0.266742    1.53075 255 255 255
-0.0154124    0.62827     1.5413 255 255 255
-0.127424     0.433   1.51226 255 255 255
-0.071865  0.566765   1.47227 255 255 255
-0.0476942    0.61512    1.46502 255 255 255
-0.19437 0.382383   1.4785 255 255 255
-1.41855 -1.82473  2.99722 255 255 255
-0.289794  0.427823   1.37627 255 255 255
-0.113525  0.524104   1.44879 255 255 255
   -0.140213 -0.000759922      1.47762 255 255 255
 -0.16196 -0.187724    1.5028 255 255 255
-0.0878659   0.520351      1.472 255 255 255
-0.0486609   0.566148    1.54398 255 255 255
-0.225135  0.297813   1.49426 255 255 255
-0.0563041   0.588833    1.48568 255 255 255
-0.0472474   0.599859    1.49012 255 255 255
0.184403 0.169421  1.62072 255 255 255
  0.107942 -0.0569242     1.5033 255 255 255
-1.56365 -1.70558  3.07833 255 255 255
0.0262225  0.293767   1.54277 255 255 255
-0.000931344     0.547727      1.70572 255 255 255
-0.0143464    1.11145    5.92683 255 255 255
-0.0458032   0.597007    1.49639 255 255 255
-0.607119  0.935748   6.06543 255 255 255
-0.473888   1.59661   5.87403 255 255 255
-0.00664144    0.639336     1.54184 255 255 255
-0.195174  0.399451   1.48007 255 255 255
   -1.47 -1.74318   2.9325 255 255 255
0.076729 0.621166  1.79057 255 255 255
-1.57241 -1.59275  3.09695 255 255 255
0.196096 0.693912  2.82515 255 255 255
-0.278145  0.428768   1.36407 255 255 255
0.0485535  0.576655    2.0174 255 255 255
-0.0949996   0.545551    1.45348 255 255 255
-0.0308934   0.598452    1.53242 255 255 255
-0.25508 0.464646  1.32736 255 255 255
-0.0762374    0.20713    1.49877 255 255 255
-0.82951 0.728559   6.2122 255 255 255
-0.0605951   0.479321    1.68356 255 255 255
0.202265 -1.40937  5.59367 255 255 255
 -0.068968 -0.0252039    1.48042 255 255 255
-0.0315355   0.503229    1.74254 255 255 255
-0.00546128    0.165168     1.47856 255 255 255
 -0.119497 -0.0880958    1.48157 255 255 255
-0.330479  0.894149   6.06454 255 255 255
0.0317336  0.217112   1.50614 255 255 255
-0.32997 0.398885  1.37762 255 255 255
-0.256105   0.40398   1.41546 255 255 255
0.0970954 0.0963741   1.52255 255 255 255
-0.0547787   0.105316    1.47961 255 255 255
-0.234725  0.298839   1.48971 255 255 255
 -0.162505 -0.0392402    1.46317 255 255 255
0.125497 0.160984  1.56131 255 255 255
-0.0896331   0.363499    1.57153 255 255 255
 -0.22299 -0.326907   1.70207 255 255 255
-0.414675    0.4468   1.25202 255 255 255
-0.138807  0.399093   1.52675 255 255 255
-0.207417  0.500363   1.25803 255 255 255
1.05866 1.12617 3.31383 255 255 255
-0.108362   0.46693   1.51065 255 255 255
-0.291785  0.489257   1.22281 255 255 255
-0.409937  0.406234   1.35476 255 255 255
-0.305907  0.453617   1.30743 255 255 255
-0.268612  0.421722   1.38977 255 255 255
-0.297243  0.353257   1.46079 255 255 255
-0.393346  0.395475   1.37985 255 255 255
-0.311269  0.453603   1.25655 255 255 255
-0.329907  0.388992   1.48039 255 255 255
-0.393598  0.368512   1.37802 255 255 255
-0.149776   0.02278    1.4721 255 255 255
-0.410592  0.414062   1.29758 255 255 255
-0.0718423   0.312222     1.5493 255 255 255
-0.237797  0.487779   1.30695 255 255 255
-0.357979 0.0440704   1.73976 255 255 255
1.11843 1.10847 3.67239 255 255 255
-0.207924   0.47133   1.28655 255 255 255
-0.451594  0.424194   1.29307 255 255 255
-0.448835  0.421716   1.35108 255 255 255
-0.444615  0.483374   1.20543 255 255 255
-0.255628  0.502166   1.25394 255 255 255
-0.35137 0.344239  1.48072 255 255 255
-0.351515  0.348553   1.50166 255 255 255
1.07813 1.18414 3.26936 255 255 255
1.22995 1.14203 3.73915 255 255 255
-0.464511  0.473438   1.20748 255 255 255
-0.424486  0.446818   1.23034 255 255 255
-0.315288  0.496874   1.22437 255 255 255
-0.422977  0.408082   1.32909 255 255 255
-0.406933  0.432895    1.4297 255 255 255
-0.939649  0.597882   4.91897 255 255 255
-0.259838  0.476065   1.30153 255 255 255
-0.382997  0.405778   1.30487 255 255 255
-0.418543   0.47378   1.21902 255 255 255
-0.378535  0.352049   1.42379 255 255 255
-0.117017 0.0652688   1.49505 255 255 255
-0.316344  0.483537   1.23234 255 255 255
-0.433555  0.478653   1.21374 255 255 255
-0.414469  0.397965   1.36906 255 255 255
-0.645047  0.280429   7.68986 255 255 255
-0.354431  0.441631   1.30635 255 255 255
-0.45249 0.406581  1.35864 255 255 255
-0.143832  0.469007   1.45608 255 255 255
-0.409283  0.347128   1.43067 255 255 255
 -0.016012 -0.0418287    1.47932 255 255 255
-0.393342  0.428866   1.28449 255 255 255
-0.221557  0.442598   1.32084 255 255 255
-0.289159 -0.294055   1.67641 255 255 255
-0.346663  0.408324   1.50461 255 255 255
1.04369 1.24679  3.3259 255 255 255
-0.357011  0.471769   1.22616 255 255 255
-0.370358  0.422254   1.49566 255 255 255
-0.46198 0.457878  1.22719 255 255 255
-0.258521  0.463926   1.32696 255 255 255
 -0.183362 -0.0098173    1.46321 255 255 255
-0.438699  0.451219   1.23129 255 255 255
-0.416813  0.368928   1.45812 255 255 255
-0.39399 0.439575  1.23039 255 255 255
 -0.275022 -0.0443506    1.55215 255 255 255
   -0.23552 -0.00364219     1.51559 255 255 255
-0.373901  0.363399   1.40317 255 255 255
-0.469303  0.458863   1.21452 255 255 255
0.986936  1.01891  3.84934 255 255 255
-0.32624  0.47208  1.26835 255 255 255
-0.399225  0.466228   1.22096 255 255 255
-0.41718 0.435305  1.23065 255 255 255
-0.369975 -0.126254    1.7559 255 255 255
-0.357505  0.447726   1.22612 255 255 255
-0.237893  0.398958   1.47146 255 255 255
-0.373375  0.483238   1.21519 255 255 255
 -0.197253 -0.0747778    1.46903 255 255 255
-0.355556   0.44362   1.25358 255 255 255
-0.362826  0.490633   1.21249 255 255 255
-0.441846  0.437613   1.25171 255 255 255
-0.0016326   0.571399    1.66594 255 255 255
-0.067126 -0.166856   1.47559 255 255 255
-0.379469  0.444235   1.23865 255 255 255
-0.397793  0.375727   1.48009 255 255 255
-0.313205  0.298072   1.54375 255 255 255
-1.88026 -1.40567  6.56829 255 255 255
-0.324759  0.355274   1.47854 255 255 255
-0.440082  0.367796   1.71087 255 255 255
-0.32247 0.353062  1.46792 255 255 255
-0.358677  0.465455   1.23277 255 255 255
-0.0504863   0.503213    1.60039 255 255 255
-0.487771  0.451104   1.26952 255 255 255
   0.115249 -0.00152655     1.53199 255 255 255
-0.435232  0.416049   1.30921 255 255 255
-0.441693  0.421289    1.4732 255 255 255
-0.373834  0.373222    1.4797 255 255 255
-0.367015  0.382371   1.39028 255 255 255
 0.03502 0.650817  1.56915 255 255 255
-0.339141  0.454882   1.22808 255 255 255
-0.170603 0.0237056   1.49048 255 255 255
-0.0337887   0.501949      1.767 255 255 255
-0.452364  0.436212   1.26279 255 255 255
-0.379806  0.461257   1.22707 255 255 255
-0.0967286  -0.194359     1.4774 255 255 255
-0.420209  0.455117   1.22727 255 255 255
-0.439092  0.430988   1.27431 255 255 255
 1.01411 -1.71663   5.5218 255 255 255
-0.404718  0.431294   1.28362 255 255 255
-0.157537  0.479707   1.47661 255 255 255
-0.358547  0.434866   1.29695 255 255 255
-0.432342  0.435134     1.278 255 255 255
-1.50921 0.791602  6.72917 255 255 255
-0.41082 0.458442  1.22194 255 255 255
-0.414587     0.428   1.28787 255 255 255
1.32528 1.07491 3.78917 255 255 255
-0.450688  0.430897   1.28432 255 255 255
-0.0455892   0.505127    1.68355 255 255 255
-0.0493041   0.307993    1.53778 255 255 255
-0.456654  0.434375   1.27978 255 255 255
0.0203276  0.583222    1.7328 255 255 255
-0.476796  0.441949   1.26612 255 255 255
-0.136205  -0.17778   1.48303 255 255 255
-1.94847 -1.76883  6.42799 255 255 255
-0.359692  0.451525   1.25598 255 255 255
 -0.196307 -0.0748252    1.48468 255 255 255
-0.283742  0.455918   1.32313 255 255 255
-0.426693  0.434553   1.23576 255 255 255
-0.389632  0.425236   1.29978 255 255 255
 -0.179976 -0.0821454    1.48544 255 255 255
-0.346216  0.414897   1.32193 255 255 255
   0.153271 -0.00904004     1.60405 255 255 255
0.0432558  -0.14344   1.49972 255 255 255
-0.361955  0.476385    1.2196 255 255 255
-0.24851 0.376529  1.46086 255 255 255
-0.239639  0.336895   1.49213 255 255 255
-0.253154 -0.326552   1.66625 255 255 255
-0.37999 0.432211  1.24929 255 255 255
1.05406 1.14731 3.71749 255 255 255
-0.356175  0.354063   1.46654 255 255 255
1.07303 1.26879 3.40792 255 255 255
1.19023 1.08986 3.97351 255 255 255
-0.375963  0.403885   1.30552 255 255 255
-0.386087  0.347265   1.47497 255 255 255
-0.496045  0.447634   1.25983 255 255 255
-0.399083  0.395497   1.36877 255 255 255
-0.314129  0.157904    1.6971 255 255 255
-0.303076  0.389579   1.39786 255 255 255
 -0.141569 -0.0692501    1.45273 255 255 255
-1.16975 0.952379  6.26697 255 255 255
-0.444033   0.45201   1.22552 255 255 255
-0.201821 -0.123891   1.49797 255 255 255
1.09272 1.05104 3.62477 255 255 255
-1.50456  1.33109  6.60514 255 255 255
-1.81217 0.977614  6.68155 255 255 255
-0.47056 0.442211  1.25121 255 255 255
-0.396148  0.413361   1.30214 255 255 255
-0.193292  -0.20565   1.50794 255 255 255
1.04851 1.18007 3.39343 255 255 255
-0.0909583   0.472268    1.55724 255 255 255
-0.219254 -0.173789   1.51515 255 255 255
 0.18524 0.269692  1.71123 255 255 255
-0.205774  0.514588   1.27472 255 255 255
   0.14252 -0.0240903    1.57028 255 255 255
-0.367482   0.47817   1.22029 255 255 255
-0.0611334   -0.15198    1.47903 255 255 255
-0.18894 0.530385  1.26844 255 255 255
-0.0682901   0.214782    1.49689 255 255 255
1.14424 1.08888 3.64776 255 255 255
-0.393577  0.385706   1.38666 255 255 255
-0.0864139 -0.0409977    1.48404 255 255 255
-0.408776  0.424723   1.49137 255 255 255
 0.115833 -0.186935   1.55665 255 255 255
-0.268059  0.118572   1.57785 255 255 255
-0.0445928   0.105057    1.47719 255 255 255
-0.363096  0.381493   1.46819 255 255 255
-0.174926  -0.12396   1.48379 255 255 255
-0.283032  0.390863   1.40284 255 255 255
-0.321406  0.438259   1.30552 255 255 255
-0.410307  0.341926   1.61991 255 255 255
0.0737785 -0.221403   1.54521 255 255 255
-0.322657  0.153719   1.71527 255 255 255
0.128043  0.27908  1.57397 255 255 255
-0.226284 -0.162059   1.50792 255 255 255
-0.164877  0.480868   1.46247 255 255 255
-0.294931   0.41082   1.39012 255 255 255
-0.179279  0.418593   1.50479 255 255 255
-0.450425  0.443744   1.22465 255 255 255
-0.336555  0.407275   1.32746 255 255 255
-1.42122  1.25531  6.80068 255 255 255
-0.226092 -0.138931   1.50355 255 255 255
1.05586 1.31607 3.32442 255 255 255
-0.466351     0.446   1.25907 255 255 255
-0.225511 -0.238371   1.53647 255 255 255
  0.179861 -0.0272717    1.61435 255 255 255
 0.108886 -0.197623   1.55964 255 255 255
-0.296762  0.431827   1.38583 255 255 255
-0.468027  0.450452    1.2361 255 255 255
-0.0801423   0.535667      1.446 255 255 255
-0.157569   0.50359   1.38352 255 255 255
-0.446167  0.455819   1.22298 255 255 255
-0.169728 -0.250592   1.51233 255 255 255
-0.0403679    0.55105    1.55261 255 255 255
-0.132727 0.0901686   1.48885 255 255 255
-1.59483 0.106984  5.29006 255 255 255
1.28809 1.03887 3.79994 255 255 255
-0.462809  0.437896   1.25304 255 255 255
-0.405972  0.457259   1.23623 255 255 255
1.13165 1.12135 3.64759 255 255 255
  0.179505 -0.0374541    1.60129 255 255 255
1.46343 1.47386 5.36681 255 255 255
-0.173989  0.387893   1.49094 255 255 255
1.04515 1.31695 3.35004 255 255 255
 -0.268255 -0.0965465    1.53265 255 255 255
-0.172538  0.455889   1.45356 255 255 255
-0.169293  0.465943   1.50186 255 255 255
-0.338922   0.43576   1.26053 255 255 255
-0.0695557  0.0458306    1.47403 255 255 255
-0.00967084    0.196425     1.50378 255 255 255
-0.0955823  -0.178739    1.47353 255 255 255
-0.176335  0.455394   1.49035 255 255 255
-0.500919  0.446293   1.27535 255 255 255
-0.20355 -0.14795  1.49328 255 255 255
-0.0346715    0.29083    1.53104 255 255 255
0.032638   0.2403  1.51595 255 255 255
  0.182199 -0.0359222    1.63127 255 255 255
-0.141986  0.472922   1.49778 255 255 255
  -0.15389 -0.0787832    1.47334 255 255 255
-0.455486  0.452462   1.22599 255 255 255
-1.49986   1.5817   6.6875 255 255 255
0.0923816 0.0016491   1.53026 255 255 255
-0.255593 0.0296354   1.53207 255 255 255
-0.262153 -0.137979   1.52522 255 255 255
-0.356492  0.326977   1.53466 255 255 255
-0.337445  0.439768   1.29533 255 255 255
-0.0534295  -0.119385    1.46728 255 255 255
-0.204303  0.493955   1.31426 255 255 255
  -0.1906 -0.101198   1.49471 255 255 255
 -1.21563 0.0603915   5.18759 255 255 255
-0.0586241  -0.122024    1.47155 255 255 255
-0.428124   0.46802   1.43827 255 255 255
-0.194808  0.444545   1.47252 255 255 255
-0.0350184    -0.1533     1.4713 255 255 255
-0.120284  0.437056   1.48981 255 255 255
-0.304441  0.340217   1.45881 255 255 255
-0.251024 -0.111662   1.51803 255 255 255
1.21072 1.10617 3.78942 255 255 255
-0.271482  0.405407   1.43648 255 255 255
-0.477309  0.435332   1.28413 255 255 255
-0.406197  0.397996   1.36514 255 255 255
-1.02593 0.719452  4.88054 255 255 255
1.28517 1.13921 3.87409 255 255 255
-0.340002  0.443116   1.28844 255 255 255
-0.400844  0.387151    1.3923 255 255 255
0.150201 0.127823  1.55851 255 255 255
-0.23163 0.449933  1.45597 255 255 255
0.0609798  0.250573   1.52789 255 255 255
-1.22889 0.929941  4.76025 255 255 255
-0.030363  0.352127   1.60184 255 255 255
-0.399568   0.45543   1.22904 255 255 255
-0.252291  0.418099   1.39842 255 255 255
 -0.210467 -0.0402742    1.46612 255 255 255
-0.350713  0.420451   1.31028 255 255 255
-0.00652986    0.221159     1.49429 255 255 255
-0.253851  0.433533   1.33366 255 255 255
-0.952446  0.049845   5.27566 255 255 255
-0.588816 0.0564162   5.21241 255 255 255
-0.377102  0.422374    1.3131 255 255 255
  0.142192 0.00305536    1.59518 255 255 255
-0.457948  0.477163   1.20887 255 255 255
-0.236217    0.4171   1.40497 255 255 255
-0.160756 -0.158964   1.50169 255 255 255
-0.162615  0.500658   1.37993 255 255 255
-0.221555  0.512275   1.26469 255 255 255
0.0131124  0.110141   1.47854 255 255 255
-0.255571 0.0632137   1.53376 255 255 255
0.0141698 -0.130529    1.4834 255 255 255
-0.972084 0.0467705   4.02285 255 255 255
0.00468574   0.281436    1.53434 255 255 255
-0.350449  0.435948   1.28213 255 255 255
-0.0601798  0.0491967    1.46835 255 255 255
-0.261041   0.12562   1.55446 255 255 255
-0.39542 0.454513  1.22963 255 255 255
-0.386194  0.296502   1.61965 255 255 255
-0.196628 -0.226202   1.51771 255 255 255
-1.68529 0.139947  5.45063 255 255 255
-0.343193  0.418832   1.31365 255 255 255
1.05869  1.1909 3.37531 255 255 255
 -0.19371 -0.130621   1.51635 255 255 255
0.187895 -1.18893   3.9957 255 255 255
 -1.06171 0.0486893   5.14122 255 255 255
-0.0586783   0.485556    1.68492 255 255 255
 -0.210564 -0.0921721    1.50142 255 255 255
-0.102274  0.174041   1.49374 255 255 255
-0.0182279   0.282518    1.53292 255 255 255
-0.0312078   0.584532    1.53228 255 255 255
-0.431091  0.406402   1.37243 255 255 255
-0.0643407 -0.0291795    1.47295 255 255 255
-0.188888 -0.208658   1.49953 255 255 255
-0.315643  0.353092   1.47951 255 255 255
 0.88811 -1.11607  4.05012 255 255 255
0.0168615  0.267038   1.52248 255 255 255
0.0152314   0.19337   1.48434 255 255 255
 0.141486 -0.187585   1.62019 255 255 255
0.971433  1.08629  3.83458 255 255 255
-0.0675812   0.262166    1.62277 255 255 255
 0.118771 -0.128769   1.61469 255 255 255
 0.087875 0.0667528   1.52655 255 255 255
  -0.21272 -0.0381471    1.53751 255 255 255
-0.180808  0.411034   1.47059 255 255 255
-0.061266  0.172499    1.4427 255 255 255
-0.047984 0.0639714   1.44292 255 255 255
0.132202 0.266026  1.62365 255 255 255
 0.140891 0.0159234   1.59611 255 255 255
-0.145341 0.0657759   1.46382 255 255 255
0.162158 0.155831  1.63325 255 255 255
-0.196435   0.46861   1.39768 255 255 255
-0.0491427    0.52043    1.61395 255 255 255
0.215428  0.10583  1.60664 255 255 255
0.037556 0.553297  1.81007 255 255 255
  0.121772 -0.0207098    1.54535 255 255 255
  0.162382 -0.0515267    1.56415 255 255 255
 -0.252404 0.00588782    4.70132 255 255 255
-0.194889 -0.247648   1.52712 255 255 255
-0.0298324   0.550526    1.56496 255 255 255
-1.50861 -1.91883  3.07937 255 255 255
0.190413  0.11522  1.58755 255 255 255
  -1.511 -1.83358   3.0171 255 255 255
  0.165268 -0.0271915    1.70287 255 255 255
-0.142132  -1.22802   5.43196 255 255 255
-0.096985  0.466541    1.5271 255 255 255
  0.160615 -0.0103997    1.71817 255 255 255
-6.95976 0.557838  7.77422 255 255 255
-0.00134783    0.566284     1.65527 255 255 255
-0.171627 0.0798978   1.51566 255 255 255
-0.188012  0.461554   1.41634 255 255 255
0.125582 0.166313  1.53358 255 255 255
-0.0138334   0.343743    1.70229 255 255 255
-0.216418  0.721334    5.1125 255 255 255
  0.135784 0.00403238    1.78768 255 255 255
0.00507567   0.528488    1.71103 255 255 255
-0.0893075  -0.169049    1.48745 255 255 255
-0.00411707    0.577684      1.6166 255 255 255
0.158328 0.194152  1.58951 255 255 255
0.134465 0.287623  1.63878 255 255 255
-1.36435 -1.67337  3.06614 255 255 255
-1.38103 -1.67424  3.13965 255 255 255
 0.121609 -0.249294   1.68918 255 255 255
0.025256 0.546957  1.81503 255 255 255
 -1.5063 -1.70729  3.01339 255 255 255
-0.225039  0.432839   1.43839 255 255 255
-0.074893  0.504596   1.61844 255 255 255
-0.148197  0.472255   1.46419 255 255 255
-1.94385 -1.85096  2.79106 255 255 255
-0.351067   0.41076   1.35833 255 255 255
-0.661336   1.83379   5.79016 255 255 255
0.0627301   0.28293   1.54004 255 255 255
0.0373348   0.56029   1.81623 255 255 255
 0.068399 -0.219577   1.54943 255 255 255
-0.047479   0.30652    1.5545 255 255 255
 -1.027 1.68043 6.04328 255 255 255
-0.268831   1.44093    5.8083 255 255 255
0.0607004 -0.224141   1.51577 255 255 255
-1.46465 -1.81628  3.04213 255 255 255
 0.17964 0.165275   1.6051 255 255 255
0.000536705    0.545466     1.74136 255 255 255
  -0.1343 -0.133458   1.48915 255 255 255
-0.182315  0.503747   1.35278 255 255 255
