ply
format ascii 1.0
element vertex 1134
property float x
property float y
property float z
property uchar red
property uchar green
property uchar blue
end_header
0.0128414  0.290727   1.54796 255 255 255
0.903322 -1.31059  5.13381 255 255 255
-0.101595  0.261538   1.51928 255 255 255
-0.362658  0.408469   1.30755 255 255 255
-0.39895 0.396908  1.37905 255 255 255
0.276053 -1.82643  5.72815 255 255 255
-0.351488   0.43628   1.31642 255 255 255
-0.0373653  0.0709903    1.46531 255 255 255
 1.33826 -1.35718  4.95059 255 255 255
-0.203183 -0.146478   1.49761 255 255 255
0.0328143  -0.21733   1.50937 255 255 255
-1.78399  -1.6058  6.04212 255 255 255
0.371899 -1.78715   5.4673 255 255 255
-0.157854  0.517242   1.39787 255 255 255
-0.160224 -0.125876   1.47827 255 255 255
-0.454273  0.407473   1.37674 255 255 255
-0.0433975 -0.0196227    1.46986 255 255 255
-1.75299 -1.47613  6.07179 255 255 255
0.0732556 -0.179055   1.51883 255 255 255
 1.46706 -1.21501  4.85812 255 255 255
0.806478 -1.37405  5.15819 255 255 255
-0.290297  0.428109   1.38289 255 255 255
-0.351965  0.408557    1.3101 255 255 255
-0.0589645   0.204055    1.49776 255 255 255
0.483331 -1.74637  5.55187 255 255 255
-0.204882  0.405951   1.48018 255 255 255
-0.0924069   0.166101    1.48525 255 255 255
0.983268  1.49857  4.67897 255 255 255
-0.0598263   0.116052    1.47703 255 255 255
1.10741 1.04652 3.84506 255 255 255
1.61028 1.37308  4.7944 255 255 255
-0.169896 -0.203013   1.49483 255 255 255
-0.0669256   0.565254    1.52388 255 255 255
0.441358 -1.74382  5.49341 255 255 255
0.684969  1.56211  5.53277 255 255 255
0.894083  1.77951  4.46302 255 255 255
-0.122334  0.163799   1.49395 255 255 255
-0.0135509   0.163061    1.48855 255 255 255
-0.213328   0.45092   1.41726 255 255 255
0.822621 -1.49261   5.0574 255 255 255
 -0.3426 0.366606  1.42487 255 255 255
-0.0151635   0.171589    1.49022 255 255 255
-0.0733845   0.511804    1.57182 255 255 255
-0.259442  0.471331   1.33183 255 255 255
-0.276895  0.475333   1.32292 255 255 255
 -0.247851 -0.0615818    1.51587 255 255 255
0.855007  1.40196   5.5561 255 255 255
 1.26336 -1.31812  4.85231 255 255 255
 1.46122 -1.40145  4.77337 255 255 255
1.05485 1.14683 5.55541 255 255 255
-0.107641 -0.257643   1.50443 255 255 255
-0.141843 -0.128308   1.47488 255 255 255
-2.02899 -1.56158  5.56397 255 255 255
-0.357031  0.424921   1.31183 255 255 255
-0.297029  0.464762   1.31602 255 255 255
0.846304 -1.40948  5.13021 255 255 255
-0.265399  0.489719    1.3261 255 255 255
-0.191032 -0.246485   1.50593 255 255 255
-0.114124  0.125562   1.48708 255 255 255
-0.276909  0.387666   1.45227 255 255 255
-1.94222 -1.45564  6.09344 255 255 255
-0.0821416  0.0789502    1.47489 255 255 255
-0.261244  0.413902   1.42118 255 255 255
0.727614  -1.3617  5.14636 255 255 255
-0.255551 -0.230286   1.54277 255 255 255
-0.0449873  -0.152173    1.47266 255 255 255
-0.187768 -0.265299   1.67076 255 255 255
-0.0438695  0.0925365    1.49073 255 255 255
 -1.4698 -1.69308  2.93756 255 255 255
-0.0898125   0.458968    1.74178 255 255 255
0.0673575  0.716151    1.6743 255 255 255
-0.280265  0.400915   1.42315 255 255 255
-0.206563  0.453741   1.42206 255 255 255
0.0761459  -1.34878   5.60778 255 255 255
0.193887 0.113483  1.57838 255 255 255
 0.107252 -0.052433   1.51322 255 255 255
-0.0728224   0.564669    1.51736 255 255 255
0.0101011  0.614589   1.65752 255 255 255
-0.87758 0.705226  6.02404 255 255 255
-0.0204758    0.55323    1.64062 255 255 255
-0.199227  0.404283   1.45439 255 255 255
-0.163459  -1.23118   5.32994 255 255 255
-1.09533 0.687477  5.98501 255 255 255
-0.17496 0.474782  1.41598 255 255 255
0.00110456   0.584605    1.63432 255 255 255
0.0671873  0.666833   1.82183 255 255 255
-0.0744486   0.578068    1.47085 255 255 255
-0.201547  0.503461   1.33296 255 255 255
-0.181401  0.423047   1.48193 255 255 255
-0.133675 0.0748946   1.48898 255 255 255
-0.35221 0.360435   1.4343 255 255 255
-0.146433  0.540488   1.38319 255 255 255
-0.0116025   0.657034    1.54141 255 255 255
-0.752293  0.691404   5.98101 255 255 255
 -0.146576 -0.0124877    1.49979 255 255 255
0.117434 0.171511  1.52658 255 255 255
0.0527088  0.612757   1.80428 255 255 255
0.0594421  0.609184   1.78754 255 255 255
-0.193619   1.44624   5.64076 255 255 255
-0.194783  0.489164   1.34713 255 255 255
-0.139957  0.553349   1.35814 255 255 255
-0.274773  0.338096   1.47785 255 255 255
-0.0584217   0.473425    1.95933 255 255 255
-0.175954  0.515981   1.36189 255 255 255
-0.4734 1.28554 5.80681 255 255 255
0.029792 0.562178   2.0166 255 255 255
-0.011294  0.476604   1.80404 255 255 255
-0.264225  0.415324   1.40598 255 255 255
-0.00200314    0.639529     1.55497 255 255 255
-0.194806  0.526309   1.32929 255 255 255
-0.108148  -0.20879   1.49699 255 255 255
0.0989421 0.0103164   1.54883 255 255 255
-0.256956   1.29255     5.667 255 255 255
-0.0112788    0.66218    1.53064 255 255 255
-0.238132   0.43387    1.3882 255 255 255
-0.578808  0.760335   5.94899 255 255 255
-0.623787     1.361   5.85342 255 255 255
-0.0588781    1.47505    5.81397 255 255 255
-0.00936998    0.520196     1.71739 255 255 255
-0.268037  0.446464   1.34813 255 255 255
-0.0670187    1.07311    5.72288 255 255 255
-0.158317  0.521808   1.37969 255 255 255
-0.296076  0.848841   5.79726 255 255 255
-0.26428 0.599343  4.98041 255 255 255
 0.124402 -0.254724   1.70898 255 255 255
-0.0410501  -0.196378    1.49292 255 255 255
-0.0594909   0.611895     1.4581 255 255 255
-0.326106 0.0981542   4.64885 255 255 255
0.060682 0.593094  1.91956 255 255 255
0.183466 0.122707  1.59977 255 255 255
-0.161839  0.487179   1.39304 255 255 255
  0.105128 0.00209335    1.52365 255 255 255
0.00891554   0.568833    1.69982 255 255 255
-0.0750848 -0.0383463    1.48025 255 255 255
-0.50648  1.34886   5.9438 255 255 255
  0.128339 -0.0627052    1.54174 255 255 255
0.000589669    0.602914     1.65319 255 255 255
0.131566 0.216256  1.56923 255 255 255
0.243238 -1.51716  5.36155 255 255 255
-1.39058 -1.73745   2.9129 255 255 255
-0.171614  0.480779   1.37673 255 255 255
-0.00352362     0.54956      1.6751 255 255 255
-0.136631  0.498332   1.44711 255 255 255
0.0172278   0.85049   2.32058 255 255 255
0.0128759  0.528742   1.85507 255 255 255
-0.0903953   0.562075    1.47848 255 255 255
-0.277308   0.46395    1.3182 255 255 255
 -1.4813 -1.68612  2.92191 255 255 255
-0.192375  0.506493   1.34221 255 255 255
-0.122263  0.492199   1.48468 255 255 255
0.110975 0.609936  4.81644 255 255 255
-0.0936158   0.500189    1.55328 255 255 255
-0.0988589   0.501569    1.56376 255 255 255
  -0.168037 0.000479709     1.50236 255 255 255
-0.0954935  -0.105649     1.4795 255 255 255
0.025046 0.539604  1.78318 255 255 255
-0.0473112   0.607231    1.50169 255 255 255
-0.200528   1.33582   5.75926 255 255 255
-0.0549814   0.566056    1.53406 255 255 255
-0.196065  0.520928   1.33092 255 255 255
-0.055301  0.615635   1.46515 255 255 255
-0.0606413   0.586677    1.49879 255 255 255
-0.00356536    0.588109     1.63215 255 255 255
-0.0748714   0.266484    1.53215 255 255 255
-0.020346   0.63507   1.54477 255 255 255
-0.133565  0.435334   1.51341 255 255 255
-0.0774481   0.572468    1.47388 255 255 255
-0.0530174   0.622104    1.46692 255 255 255
-0.20171 0.383703  1.47914 255 255 255
-1.36123 -1.76592  2.91452 255 255 255
-0.298505  0.429864    1.3753 255 255 255
-0.119659  0.528944   1.44976 255 255 255
   -0.14494 -0.00637292     1.47582 255 255 255
-0.166732 -0.196653   1.50151 255 255 255
-0.0933047   0.524917    1.47301 255 255 255
-0.0540767   0.571468    1.54712 255 255 255
-0.232832  0.297348   1.49473 255 255 255
-0.0617894   0.595034    1.48787 255 255 255
-0.0525944   0.606311    1.49245 255 255 255
0.185195 0.167722  1.62364 255 255 255
  0.107999 -0.0632721    1.50345 255 255 255
-1.49085 -1.64274   2.9802 255 255 255
0.0232011   0.29449   1.54482 255 255 255
-0.00568321    0.551687     1.71116 255 255 255
-0.0258663    1.05355    5.73486 255 255 255
-0.051135  0.603362   1.49885 255 255 255
-0.591564   0.87715   5.84053 255 255 255
-0.466786   1.51411    5.6748 255 255 255
-0.0114366   0.646434    1.54539 255 255 255
-0.201875  0.400623   1.47948 255 255 255
-1.41273 -1.68931  2.85458 255 255 255
0.0733511   0.62599   1.79675 255 255 255
-1.51009 -1.54358  3.01147 255 255 255
0.189876  0.68909   2.8303 255 255 255
-0.286803   0.43104   1.36295 255 255 255
0.0439205  0.578259   2.02527 255 255 255
-0.100939  0.550828   1.45462 255 255 255
-0.0358965   0.604531    1.53529 255 255 255
-0.263918  0.468385   1.32636 255 255 255
-0.0808618   0.205887    1.49894 255 255 255
-0.80384 0.677514  5.97411 255 255 255
-0.0663567   0.481982    1.68841 255 255 255
0.187423 -1.36475  5.40082 255 255 255
-0.0725566 -0.0311362    1.47898 255 255 255
-0.036491   0.50572   1.74737 255 255 255
-0.00815644    0.163379     1.47784 255 255 255
 -0.123928 -0.0953649    1.47983 255 255 255
-0.328594  0.840823   5.85151 255 255 255
0.0291783  0.216551   1.50745 255 255 255
-0.339187  0.400033   1.37654 255 255 255
-0.264413   0.40557   1.41513 255 255 255
0.0963429 0.0932572   1.52208 255 255 255
-0.0585206   0.102015    1.47774 255 255 255
-0.242518  0.298271   1.48955 255 255 255
  -0.16792 -0.0456966    1.46099 255 255 255
0.124886 0.158957  1.56138 255 255 255
-0.0951197   0.363944    1.57108 255 255 255
-0.228092 -0.337595   1.70322 255 255 255
-0.426816  0.450114   1.25086 255 255 255
-0.145131   0.40027   1.52705 255 255 255
-0.21551 0.505622  1.25545 255 255 255
1.03636 1.10858 3.27669 255 255 255
-0.114362  0.469707   1.51145 255 255 255
-0.301658  0.494274   1.22012 255 255 255
-0.421544  0.407976   1.35567 255 255 255
-0.315796  0.457145   1.30668 255 255 255
-0.277549  0.424148   1.39007 255 255 255
-0.306418  0.353803   1.46193 255 255 255
-0.404574  0.396942   1.38114 255 255 255
-0.321379  0.457541    1.2548 255 255 255
-0.339559   0.38939   1.48082 255 255 255
-0.404812  0.369536   1.37933 255 255 255
-0.155157 0.0175812   1.47053 255 255 255
-0.422421  0.416387   1.29738 255 255 255
-0.0766982   0.312354    1.54954 255 255 255
-0.246416   0.49222    1.3056 255 255 255
-0.366409 0.0377529   1.74143 255 255 255
1.08994  1.0855 3.62012 255 255 255
-0.215925  0.475679   1.28435 255 255 255
 -0.4642 0.426531  1.29303 255 255 255
-0.461122  0.423517   1.35204 255 255 255
-0.457642  0.487746   1.20339 255 255 255
-0.264731  0.507366   1.25178 255 255 255
-0.361313  0.344066   1.48197 255 255 255
-0.361374   0.34809   1.50239 255 255 255
1.05565 1.16638 3.23275 255 255 255
1.19801 1.11747 3.68219 255 255 255
-0.477878  0.477461   1.20556 255 255 255
-0.436836  0.450186   1.22848 255 255 255
-0.325668  0.501957   1.22193 255 255 255
-0.434903  0.409979   1.32958 255 255 255
-0.418181  0.434379   1.43133 255 255 255
-0.91603 0.560036  4.76859 255 255 255
-0.268874  0.480279   1.30032 255 255 255
-0.394261  0.408008   1.30451 255 255 255
-0.430953  0.477918   1.21709 255 255 255
-0.389298  0.352515   1.42556 255 255 255
-0.121788 0.0609627   1.49411 255 255 255
-0.326682  0.488225   1.23002 255 255 255
-0.446298  0.482873   1.21177 255 255 255
-0.426051  0.399374   1.37002 255 255 255
-0.618372  0.242687   7.27368 255 255 255
-0.365236  0.444704   1.30593 255 255 255
-0.464791  0.408036   1.35981 255 255 255
-0.150476  0.472163   1.45643 255 255 255
-0.420437   0.34718    1.4322 255 255 255
-0.0185525 -0.0479517    1.47786 255 255 255
-0.404916  0.431658   1.28385 255 255 255
-0.22972 0.446003  1.31917 255 255 255
-0.295333   -0.3048   1.67879 255 255 255
-0.356761  0.408155   1.50395 255 255 255
1.02034 1.22704 3.28696 255 255 255
-0.368157  0.476066   1.22395 255 255 255
-0.380856  0.422234   1.49508 255 255 255
-0.475137   0.46137   1.22565 255 255 255
-0.267462   0.46769   1.32621 255 255 255
  -0.18928 -0.0157678    1.46099 255 255 255
-0.451381  0.454661   1.22975 255 255 255
-0.428024  0.369112   1.46016 255 255 255
 -0.4058 0.443043  1.22866 255 255 255
 -0.282381 -0.0513986     1.5521 255 255 255
  -0.242396 -0.00967996     1.51492 255 255 255
-0.384668  0.364241   1.40464 255 255 255
-0.482689  0.462493   1.21281 255 255 255
0.957235 0.993379  3.78568 255 255 255
-0.336656  0.476195   1.26689 255 255 255
-0.411179  0.470221   1.21875 255 255 255
-0.429383  0.438506   1.22886 255 255 255
-0.377838 -0.135091   1.75864 255 255 255
-0.368604   0.45153   1.22393 255 255 255
-0.245985  0.400117   1.47156 255 255 255
-0.384919  0.487811   1.21285 255 255 255
 -0.203171 -0.0820893    1.46799 255 255 255
-0.366532  0.447159   1.25204 255 255 255
-0.374189  0.495448   1.21004 255 255 255
-0.454484  0.440613   1.25074 255 255 255
-0.00613972    0.575649     1.67032 255 255 255
-0.0703847  -0.175411    1.47398 255 255 255
-0.390964  0.447773   1.23693 255 255 255
-0.408489  0.375593     1.481 255 255 255
-0.322221   0.29682   1.54466 255 255 255
-1.75942 -1.32866  6.19468 255 255 255
-0.33423 0.355289  1.47915 255 255 255
-0.450485  0.365802   1.71441 255 255 255
-0.332023  0.353311   1.46873 255 255 255
-0.369756  0.469511    1.2305 255 255 255
-0.0556561   0.506015    1.60213 255 255 255
-0.501163  0.453929   1.26901 255 255 255
   0.115175 -0.00653074     1.53199 255 255 255
-0.447447  0.418159   1.30932 255 255 255
-0.453273  0.421153   1.47302 255 255 255
-0.384114   0.37319    1.4804 255 255 255
-0.377722   0.38367    1.3915 255 255 255
0.0307938  0.656405   1.57005 255 255 255
-0.349877  0.458928   1.22581 255 255 255
-0.176384 0.0183897   1.48885 255 255 255
-0.0389159   0.503225    1.76967 255 255 255
-0.465141  0.439028    1.2621 255 255 255
-0.391355  0.465206   1.22494 255 255 255
-0.100384  -0.20349   1.47626 255 255 255
-0.432511  0.458705    1.2253 255 255 255
-0.451511  0.433605   1.27356 255 255 255
0.966423 -1.65594   5.3342 255 255 255
-0.416502  0.434066   1.28299 255 255 255
-0.164538  0.482297   1.47599 255 255 255
-0.369425  0.437816   1.29623 255 255 255
-0.444684  0.437907   1.27752 255 255 255
-1.42912  0.71983  6.36825 255 255 255
-0.422974  0.462201   1.21982 255 255 255
-0.426529  0.430617   1.28738 255 255 255
1.29108 1.05103 3.72935 255 255 255
-0.463322  0.433427   1.28406 255 255 255
-0.0509069   0.506885    1.68499 255 255 255
-0.053588  0.308113    1.5381 255 255 255
-0.46944 0.437006  1.27951 255 255 255
0.0156484  0.585836   1.73475 255 255 255
-0.489997  0.444697   1.26554 255 255 255
-0.140703 -0.186666   1.48162 255 255 255
-1.82346 -1.66814  6.07404 255 255 255
-0.370752  0.455165   1.25447 255 255 255
 -0.202215 -0.0820898     1.4836 255 255 255
-0.293168  0.459452    1.3225 255 255 255
-0.439044  0.437628   1.23409 255 255 255
-0.401075  0.427845   1.29941 255 255 255
 -0.185545 -0.0894807    1.48427 255 255 255
-0.356745  0.417319    1.3215 255 255 255
   0.15369 -0.0142478    1.60509 255 255 255
0.0420967 -0.151358   1.49837 255 255 255
-0.373238  0.480831   1.21731 255 255 255
-0.256826  0.377509   1.46088 255 255 255
-0.24765  0.33713  1.49346 255 255 255
-0.258701 -0.337383   1.66756 255 255 255
-0.39143 0.435427  1.24781 255 255 255
1.02583 1.12283 3.66358 255 255 255
-0.366258  0.354129   1.46773 255 255 255
1.04863  1.2479 3.36722 255 255 255
1.15606 1.06296 3.90687 255 255 255
-0.387127  0.406176   1.30534 255 255 255
-0.396683   0.34709   1.47665 255 255 255
-0.509626  0.450432   1.25915 255 255 255
-0.410446  0.397015   1.36993 255 255 255
-0.32249 0.153676  1.69891 255 255 255
-0.312533  0.391067   1.39784 255 255 255
-0.146491 -0.076189   1.45041 255 255 255
-1.12454 0.886954  6.00762 255 255 255
-0.456845  0.455493   1.22388 255 255 255
-0.207632 -0.132096   1.49711 255 255 255
1.06591 1.02988  3.5756 255 255 255
-1.42848  1.22716  6.26545 255 255 255
-1.70901 0.890862  6.31455 255 255 255
-0.483728  0.445137    1.2503 255 255 255
-0.407701  0.415726   1.30196 255 255 255
-0.198557 -0.215349   1.50808 255 255 255
1.02479 1.16034 3.35293 255 255 255
-0.0967492   0.474642    1.55801 255 255 255
-0.225184 -0.182905   1.51492 255 255 255
0.184699 0.268993  1.71323 255 255 255
-0.213854   0.51999   1.27251 255 255 255
  0.142776 -0.0295224    1.57052 255 255 255
-0.378869  0.482594   1.21798 255 255 255
-0.0643312  -0.160257     1.4779 255 255 255
-0.196722  0.536239   1.26598 255 255 255
-0.072575  0.213516   1.49662 255 255 255
1.11581  1.0667 3.59651 255 255 255
-0.404777  0.386955   1.38807 255 255 255
-0.0903094 -0.0472354    1.48236 255 255 255
-0.419836  0.424593   1.49102 255 255 255
  0.11586 -0.195164   1.55659 255 255 255
-0.275816  0.114351   1.57784 255 255 255
-0.0480473   0.101916    1.47633 255 255 255
-0.373301    0.3817   1.46868 255 255 255
-0.180235 -0.132092   1.48283 255 255 255
-0.29215 0.392574  1.40332 255 255 255
-0.331496  0.441309   1.30439 255 255 255
-0.420574  0.340259    1.6221 255 255 255
0.0731315 -0.230434   1.54486 255 255 255
-0.33106 0.149289  1.71688 255 255 255
0.126918 0.279123  1.57425 255 255 255
-0.232339 -0.171082   1.50796 255 255 255
-0.172016  0.483559   1.46168 255 255 255
-0.303716  0.412444   1.38942 255 255 255
-0.186417  0.419993   1.50471 255 255 255
-0.463346  0.447039   1.22305 255 255 255
-0.346909  0.409651   1.32736 255 255 255
-1.35135  1.16192  6.46232 255 255 255
-0.232255 -0.147521   1.50334 255 255 255
1.03158 1.29506 3.28423 255 255 255
-0.479413  0.448954   1.25831 255 255 255
 -0.23126 -0.248571   1.53719 255 255 255
  0.180582 -0.0327115    1.61507 255 255 255
 0.108894 -0.206109   1.56002 255 255 255
-0.30623  0.43422  1.38592 255 255 255
-0.481241  0.453689   1.23482 255 255 255
-0.085879  0.540069   1.44546 255 255 255
-0.164551  0.508078   1.38317 255 255 255
-0.459051   0.45941   1.22132 255 255 255
-0.174407 -0.260948   1.51273 255 255 255
-0.0455767   0.554791    1.55321 255 255 255
-0.137926 0.0863736   1.48772 255 255 255
 -1.53102 0.0835697   5.09077 255 255 255
1.25531 1.01588 3.74189 255 255 255
-0.47582 0.440765  1.25216 255 255 255
-0.418025  0.460956   1.23463 255 255 255
1.10321 1.09856 3.59618 255 255 255
  0.180262 -0.0430376    1.60179 255 255 255
1.38915 1.40542 5.18205 255 255 255
-0.180943  0.389344   1.49176 255 255 255
1.02075 1.29553 3.30921 255 255 255
-0.275296 -0.104509   1.53311 255 255 255
-0.179677  0.458716   1.45397 255 255 255
-0.176454  0.468024   1.50145 255 255 255
-0.349561  0.439231   1.25917 255 255 255
-0.0734552  0.0413003    1.47144 255 255 255
-0.0129082   0.194873    1.50248 255 255 255
-0.0992619  -0.187595    1.47228 255 255 255
-0.183564  0.457453   1.49011 255 255 255
-0.51449 0.448888  1.27499 255 255 255
-0.209271 -0.156631   1.49279 255 255 255
-0.0385909   0.290763    1.53128 255 255 255
0.0303005  0.239981   1.51658 255 255 255
  0.183052 -0.0415632    1.63259 255 255 255
-0.148597  0.475428   1.49774 255 255 255
 -0.159002 -0.0859684    1.47136 255 255 255
-0.468528  0.455913   1.22447 255 255 255
-1.42497  1.46711  6.35373 255 255 255
  0.0918919 -0.00338862     1.53023 255 255 255
-0.262927  0.024035   1.53203 255 255 255
-0.268926 -0.146684   1.52568 255 255 255
-0.366272  0.325947   1.53563 255 255 255
-0.34795 0.442983  1.29457 255 255 255
-0.0564314   -0.12704    1.46583 255 255 255
-0.212264  0.498495   1.31259 255 255 255
-0.196306 -0.108965   1.49386 255 255 255
 -1.17669 0.0408519   5.01596 255 255 255
-0.0617355  -0.129772    1.47007 255 255 255
-0.439763  0.469045   1.43773 255 255 255
-0.202283  0.446586   1.47238 255 255 255
-0.0375958  -0.161507    1.46997 255 255 255
-0.126464   0.43928    1.4896 255 255 255
-0.313701  0.340478   1.46005 255 255 255
-0.257737 -0.119827   1.51807 255 255 255
1.17855 1.08148 3.73049 255 255 255
-0.280325  0.407008   1.43678 255 255 255
-0.490416  0.437791   1.28395 255 255 255
-0.417701  0.399548   1.36626 255 255 255
-0.999913  0.676885   4.73565 255 255 255
1.25053 1.11309 3.81175 255 255 255
-0.350584  0.446446   1.28758 255 255 255
-0.412075  0.388239   1.39341 255 255 255
0.150211 0.125289  1.55867 255 255 255
-0.239841  0.451875    1.4553 255 255 255
0.0591273  0.250508   1.52899 255 255 255
-1.20168 0.885251  4.65364 255 255 255
-0.0347811   0.352496     1.6019 255 255 255
-0.411477  0.459132   1.22705 255 255 255
-0.260874  0.420263   1.39798 255 255 255
 -0.216824 -0.0468636    1.46457 255 255 255
-0.361407  0.423135   1.30998 255 255 255
-0.00956009    0.220251     1.49419 255 255 255
-0.262619  0.436694   1.33293 255 255 255
-0.926333 0.0315817   5.10773 255 255 255
-0.578923 0.0396287   5.07306 255 255 255
-0.388255  0.424868   1.31284 255 255 255
  0.142285 -0.0019439    1.59564 255 255 255
-0.471203  0.481306   1.20699 255 255 255
-0.244489  0.419235   1.40441 255 255 255
-0.165677  -0.16767   1.50099 255 255 255
-0.16968 0.505106  1.37953 255 255 255
-0.229964  0.517665   1.26239 255 255 255
0.0108543  0.107288   1.47776 255 255 255
-0.263004 0.0581873   1.53303 255 255 255
0.0124378 -0.138333   1.48212 255 255 255
-0.960624 0.0324721    3.9683 255 255 255
0.00135762   0.281331    1.53383 255 255 255
-0.361225  0.439099   1.28111 255 255 255
-0.0639395  0.0447576    1.46576 255 255 255
-0.268739   0.12164   1.55407 255 255 255
-0.407247  0.458218   1.22764 255 255 255
-0.39617 0.294506  1.62217 255 255 255
-0.201943 -0.235906   1.51713 255 255 255
-1.61303 0.114005  5.23372 255 255 255
-0.353726  0.421492   1.31337 255 255 255
  1.035 1.17132 3.33527 255 255 255
-0.199334 -0.138895   1.51545 255 255 255
0.183302  -1.1813  3.95392 255 255 255
 -1.03171 0.0304356    4.9818 255 255 255
-0.0641501   0.486978    1.68618 255 255 255
 -0.216656 -0.0997737    1.49997 255 255 255
-0.107233   0.17179   1.49204 255 255 255
-0.0219857   0.282361    1.53237 255 255 255
-0.0361886   0.589426    1.53352 255 255 255
-0.442957  0.407845   1.37359 255 255 255
  -0.06782 -0.0352066    1.47117 255 255 255
-0.194123 -0.218185   1.49923 255 255 255
-0.324926    0.3531   1.48003 255 255 255
0.867751 -1.10246   3.9887 255 255 255
0.0138174  0.266753   1.52172 255 255 255
0.0125608  0.191956   1.48303 255 255 255
 0.141944 -0.195908   1.62153 255 255 255
0.943684  1.06116  3.77666 255 255 255
-0.0730369   0.261467    1.62599 255 255 255
 0.118264 -0.137041   1.61739 255 255 255
0.0873801  0.063045   1.52661 255 255 255
 -0.217481 -0.0445011    1.53467 255 255 255
-0.187989  0.412952   1.47145 255 255 255
-0.0651912   0.170771     1.4415 255 255 255
-0.0522082  0.0599191    1.44244 255 255 255
0.130782 0.266346  1.62859 255 255 255
 0.140571 0.0106868   1.59944 255 255 255
-0.151167  0.061417     1.463 255 255 255
0.161748 0.153799  1.63806 255 255 255
-0.203845   0.47204   1.39738 255 255 255
-0.0545793   0.524441    1.61798 255 255 255
0.216548 0.102891  1.61106 255 255 255
0.0333881    0.5566   1.81637 255 255 255
  0.121196 -0.0266833    1.54739 255 255 255
  0.162766 -0.0581381    1.56686 255 255 255
  -0.250319 -0.00703448      4.5876 255 255 255
-0.199747 -0.257207   1.52571 255 255 255
-0.0345681   0.555541    1.56807 255 255 255
-1.42434 -1.83583  2.96583 255 255 255
0.191245  0.11242  1.59116 255 255 255
-1.44338 -1.76759   2.9247 255 255 255
   0.16555 -0.0333239    1.70655 255 255 255
-0.143822  -1.19174   5.24897 255 255 255
-0.102369  0.469455   1.52852 255 255 255
  0.160784 -0.0162159    1.72186 255 255 255
-5.95226 0.455923  6.78762 255 255 255
-0.00586126    0.570348     1.65911 255 255 255
-0.177156 0.0755979   1.51438 255 255 255
-0.195161  0.464711   1.41628 255 255 255
0.124965 0.164906  1.53587 255 255 255
-0.0187078   0.344385     1.7075 255 255 255
-0.220782  0.686462   4.99108 255 255 255
   0.134723 -0.00189796     1.79322 255 255 255
0.000583289     0.53213     1.71623 255 255 255
-0.0930595   -0.17774    1.48624 255 255 255
-0.00852998    0.582889     1.62048 255 255 255
0.158655 0.193055  1.59182 255 255 255
0.132975   0.2883  1.64405 255 255 255
-1.31011 -1.62134  2.98164 255 255 255
-1.32478 -1.62103  3.05114 255 255 255
 0.121277 -0.259423    1.6915 255 255 255
0.020486 0.550433  1.82241 255 255 255
-1.43558 -1.64439  2.91804 255 255 255
-0.232691  0.434954   1.43842 255 255 255
-0.0805596   0.507944    1.62199 255 255 255
-0.155272  0.475812   1.46568 255 255 255
-1.84171  -1.7708  2.69566 255 255 255
-0.360281  0.412068   1.35672 255 255 255
-0.646347   1.74124    5.5954 255 255 255
0.0604379  0.283648    1.5423 255 255 255
0.033147 0.563635  1.82256 255 255 255
0.0673682 -0.229309   1.54999 255 255 255
-0.0518811   0.306906    1.55616 255 255 255
-0.993498   1.58453   5.81497 255 255 255
-0.270404   1.36916   5.62399 255 255 255
0.0597148 -0.233862   1.51555 255 255 255
-1.40029 -1.75204  2.95054 255 255 255
0.179795 0.163603  1.60973 255 255 255
-0.00413636    0.549067     1.74707 255 255 255
-0.138043 -0.141262   1.48648 255 255 255
-0.189849  0.508616   1.35223 255 255 255
-0.519645   1.14369   5.90515 255 255 255
0.140363 0.276858  1.57715 255 255 255
-0.231602   1.09982   5.69555 255 255 255
0.0215008  0.541231   1.83342 255 255 255
-0.166994  0.455162   1.41251 255 255 255
-1.53935 0.932356  6.28701 255 255 255
  0.160571 -0.0279565    1.65899 255 255 255
-0.377065    1.0829   5.84121 255 255 255
0.0115838  0.545641   1.83887 255 255 255
-0.162048  0.408026   1.50415 255 255 255
0.0110962 -0.259906   1.55289 255 255 255
-1.37484 -1.72405  2.94163 255 255 255
-1.44791 -1.80402  2.87044 255 255 255
0.127995 0.171166  1.54197 255 255 255
-0.640604   1.37537   5.92944 255 255 255
-0.0962577   0.519339    1.41373 255 255 255
-0.0321118   0.559467    1.59725 255 255 255
0.0136302  0.527246   1.83088 255 255 255
-0.994085   1.71696   5.77972 255 255 255
    0.153102 -0.000936164      1.71479 255 255 255
-0.00990664    0.507975     1.69981 255 255 255
-0.0601441   0.549199    1.57853 255 255 255
-0.185078 0.0216199   1.48304 255 255 255
-0.161983  0.457841   1.47648 255 255 255
-0.354721   0.40768   1.36235 255 255 255
-0.0997421   0.541245    1.46353 255 255 255
-0.21359 0.437257  1.40458 255 255 255
-0.0834934   0.466255    1.60099 255 255 255
-0.248676   1.22497   5.66613 255 255 255
-0.0129374   0.550298    1.71364 255 255 255
-0.139428  0.151627   1.50747 255 255 255
-0.0892196   0.492187    1.54994 255 255 255
-0.085681  0.509199    1.4622 255 255 255
0.0602114  0.306512   1.60361 255 255 255
-0.179034  0.525075   1.39386 255 255 255
0.0373516  0.275095   1.54108 255 255 255
0.0384314  0.274602   1.53981 255 255 255
0.0930015 -0.289246   1.63823 255 255 255
-0.105765  0.501849   1.62735 255 255 255
-0.212666 0.0770442   1.52525 255 255 255
 0.035859 -0.172911   1.50439 255 255 255
-0.308167  0.349436   1.45923 255 255 255
-0.0936293  -0.168108    1.47993 255 255 255
 0.108034 -0.055951   1.49685 255 255 255
-0.11672 0.512647  1.46693 255 255 255
-0.0435862   0.463325    1.85825 255 255 255
0.0674476 -0.309686   1.62885 255 255 255
-0.0609481   0.502451    1.58905 255 255 255
-0.525452   1.34608   5.88011 255 255 255
-0.0755233   -0.16568    1.47089 255 255 255
-0.235948  0.442562   1.43532 255 255 255
-0.336559 0.0579259   4.62106 255 255 255
-0.0132778  -0.163806    1.47643 255 255 255
0.0355165  -0.25842    1.5334 255 255 255
0.0821214 -0.274403   1.60481 255 255 255
-0.0023136   0.571016     1.7078 255 255 255
-0.0384986    0.50688    1.73074 255 255 255
0.00298327   0.589552    1.63979 255 255 255
-0.0328679   0.179951    1.48569 255 255 255
-0.0711542 0.00182599    1.48277 255 255 255
    0.104872 -0.000809926      1.59749 255 255 255
0.00519659   0.239026    1.51792 255 255 255
 -0.0966 0.481478   1.5522 255 255 255
   0.113165 -0.00305218      1.5928 255 255 255
-0.169896  0.466281   1.33019 255 255 255
-0.278848  0.410237   1.44138 255 255 255
-0.10762 0.517044  1.47648 255 255 255
0.209244 0.555231  2.24782 255 255 255
-0.158393 -0.172153   1.49426 255 255 255
-0.0689607  -0.176048    1.47249 255 255 255
-0.0691383   0.175675    1.50483 255 255 255
0.116401 0.278769  1.55246 255 255 255
-0.380483  0.105391   4.78852 255 255 255
-0.101124  0.482197   1.60813 255 255 255
-0.383156    1.2637   5.83543 255 255 255
-0.606002    1.2235   5.74174 255 255 255
-0.0195818   0.514057    1.68073 255 255 255
-0.246769   1.19829   5.65995 255 255 255
-0.0649225   0.530207    1.48744 255 255 255
-0.0749722   0.337885    1.57467 255 255 255
-0.219583  0.441242   1.42638 255 255 255
0.115191  0.17275  1.54395 255 255 255
-0.135768 -0.121633   1.48596 255 255 255
-0.250576   0.41123   1.45188 255 255 255
0.0292256  0.263227   1.53029 255 255 255
-0.0795564   0.232297    1.52693 255 255 255
-0.254647  0.392578   1.42194 255 255 255
-0.0942806   0.476068    1.56147 255 255 255
-0.0931611   0.533945    1.46013 255 255 255
-1.60784 -1.66557  3.06738 255 255 255
-0.0763609   0.231203    1.51049 255 255 255
-0.0143143   0.203584    1.49606 255 255 255
   0.11931 -0.0223956    1.57892 255 255 255
0.0457832  0.224036   1.50127 255 255 255
-0.117938 -0.197287   1.49388 255 255 255
-0.0417017  -0.172648    1.48141 255 255 255
  -0.11389 -0.0673003    1.49302 255 255 255
0.00469227   0.177356    1.49254 255 255 255
-1.44455 -1.74146  2.82314 255 255 255
-1.59797 -1.84332  2.76418 255 255 255
-9.24198e-05     0.591341      1.65525 255 255 255
-0.245587  0.422604   1.39604 255 255 255
-1.34999 -1.77192  2.99258 255 255 255
0.0882878 0.0629511    1.5142 255 255 255
0.0172529  0.285533   1.55952 255 255 255
0.102525 0.211764  1.54384 255 255 255
0.147826 0.253193  1.58405 255 255 255
-0.184826  0.489869   1.39623 255 255 255
-0.10287 0.484553  1.70536 255 255 255
0.179388 0.148956  1.58392 255 255 255
  0.148496 0.00644436    1.59229 255 255 255
  0.21816 0.0981856   1.59269 255 255 255
-0.0110287   0.551855    1.88763 255 255 255
-0.163861   0.44164   1.53577 255 255 255
-1.40774 -1.80396  2.97016 255 255 255
 0.175481 -0.033811    1.6872 255 255 255
-1.75375 -2.10455  2.78886 255 255 255
-0.0355072   0.519615    1.88496 255 255 255
-0.00849468    0.341511     1.63158 255 255 255
-1.88964 -2.15041  2.54885 255 255 255
-0.101486  0.438461   1.96437 255 255 255
 -0.195531 0.00587972    1.49823 255 255 255
-0.282809  0.470183   1.26616 255 255 255
-0.207982  0.405014   1.51537 255 255 255
-0.0279187   0.501763    1.98913 255 255 255
 -0.182172 -0.0624703     1.4973 255 255 255
-0.0362679   0.529907    1.76363 255 255 255
-0.0238629   0.551711     1.8338 255 255 255
-0.0949249    0.26364    1.54201 255 255 255
    0.138225 -0.000731602      1.70822 255 255 255
-0.0959506    0.47258      1.945 255 255 255
-0.0270094   0.556263    1.74115 255 255 255
0.152918 0.264729  1.66146 255 255 255
-0.324492  0.337284   1.47838 255 255 255
-1.43786 -1.77551  2.93276 255 255 255
-0.105891  0.521812   1.53194 255 255 255
0.0580035  0.255775   1.53024 255 255 255
-1.91171 -2.16305  2.84651 255 255 255
0.139563 0.120671  1.56075 255 255 255
-0.179591  0.203596   1.51874 255 255 255
-1.78531 -1.68472  1.94356 255 255 255
-0.165028   0.50042   1.41128 255 255 255
-2.3469 -1.9128 2.77355 255 255 255
    0.0952 0.00954337     1.5463 255 255 255
-1.39019 -1.68078  3.11513 255 255 255
0.153156 0.272284  1.62587 255 255 255
 0.16318 0.270766  1.62194 255 255 255
-1.76701 -1.86003  1.87666 255 255 255
-0.165243  0.482629    1.4321 255 255 255
 0.13675 0.108547  1.56486 255 255 255
-0.126759  0.444899    1.9167 255 255 255
-0.136992  0.407193   1.90923 255 255 255
0.0341833   0.26108   1.52976 255 255 255
-0.276058  0.431666   1.37758 255 255 255
-0.22691 0.458559  1.36678 255 255 255
-0.294106  0.437038   1.32265 255 255 255
-0.139346  0.354499   1.84011 255 255 255
-0.220854   0.50471   1.32911 255 255 255
-0.120329  0.432068   1.86822 255 255 255
0.195432 0.117981  1.62917 255 255 255
-0.110342  0.313582   1.55657 255 255 255
-0.0218402   0.551134    1.69489 255 255 255
0.150663 0.211259  1.60869 255 255 255
-1.76505  -1.8079  1.99062 255 255 255
-0.188891  0.423026   1.48228 255 255 255
-0.112315  0.549203   1.48726 255 255 255
-1.75359  -1.8258  1.89566 255 255 255
-0.140503   0.54306   1.38756 255 255 255
-0.12559 0.444348  1.90106 255 255 255
-0.109613  0.554032   1.49338 255 255 255
-0.0362095   0.321371    1.57868 255 255 255
-0.00403749    0.329808     1.64557 255 255 255
-0.0868954   0.500132    2.02596 255 255 255
-0.333931  0.406217   1.40243 255 255 255
-1.96507 -1.77981  1.95109 255 255 255
-0.0861314     0.5146    1.66397 255 255 255
-0.187405  0.370318   1.89387 255 255 255
 0.206399 0.0960297   1.56453 255 255 255
-0.0920426   0.529605     1.6395 255 255 255
-0.127366  0.503866   1.57444 255 255 255
0.0771281  0.306939   1.64206 255 255 255
-0.00276944     0.50768     1.99097 255 255 255
-0.19118 0.488695  1.47084 255 255 255
-0.232916  0.387666   1.47973 255 255 255
-0.0458464   0.380203    1.61644 255 255 255
-0.0695784    0.48028    1.72022 255 255 255
-0.158703  0.501231   1.44096 255 255 255
0.144297 0.286315  1.64813 255 255 255
0.0616865  0.293518   1.56139 255 255 255
-0.25521 0.370213  1.47355 255 255 255
 0.0621322 -0.0627435    1.50729 255 255 255
  0.114738 -0.0121524    1.58288 255 255 255
-1.82714  -1.9629  2.09842 255 255 255
-0.354263  0.404127   1.34866 255 255 255
0.0104225  0.277663   1.54205 255 255 255
-0.073884  0.527048   1.50254 255 255 255
-0.0888702   0.477005     1.6325 255 255 255
-1.76415 -1.87348  2.05887 255 255 255
0.00661056   0.176456     1.4984 255 255 255
-1.86782 -1.88987  2.62907 255 255 255
-0.120765  0.413218   1.94097 255 255 255
-1.76859 -1.69687  1.95872 255 255 255
  0.15308 -0.046248    1.5731 255 255 255
-1.93144 -1.91796  2.51915 255 255 255
-0.223284  0.422505   1.45158 255 255 255
-1.71443 -1.73773  1.84577 255 255 255
  0.078543 -0.0416598    1.50177 255 255 255
-0.0977307   0.297697    1.54829 255 255 255
0.147092 0.124714  1.64686 255 255 255
0.154771 0.222718  1.59585 255 255 255
0.168541 0.152533   1.5597 255 255 255
-0.0715007   0.490899     1.6941 255 255 255
-0.000221415     0.154662      1.49338 255 255 255
-2.00327 -2.25338  2.63354 255 255 255
-0.160051   0.52589   1.39646 255 255 255
0.153188  0.27266  1.61846 255 255 255
 0.0677135 -0.0415623    1.51492 255 255 255
-0.179873  0.481955    1.4358 255 255 255
0.0340998  0.566817   1.85761 255 255 255
-0.0933649   0.429385    1.94873 255 255 255
 -0.203641 -0.0613427    1.49518 255 255 255
0.159896 0.259794  1.59903 255 255 255
0.171835 0.127629  1.64137 255 255 255
-0.0691327   0.477787    1.87553 255 255 255
-1.74907 -1.77948  2.05417 255 255 255
 0.16926 0.147281  1.56429 255 255 255
-0.187185   0.47369   1.49065 255 255 255
-1.42029 -1.82878   2.9271 255 255 255
-0.0131257   0.350471    1.63586 255 255 255
0.0932809 -0.226374   1.56677 255 255 255
-0.0931907   0.447477    1.92653 255 255 255
-0.240452  0.508418     1.325 255 255 255
-1.43702 -1.80578  2.92322 255 255 255
-0.239653  0.438586   1.39869 255 255 255
0.0180514  0.565837    1.8653 255 255 255
-0.0729879   0.509606    1.68454 255 255 255
 0.0935319 -0.0123072    1.56435 255 255 255
 -1.3542 -1.63809  3.03192 255 255 255
-0.0914754   0.497348    1.62028 255 255 255
-0.0824963   0.496105    1.61706 255 255 255
-2.27193 -1.76395  2.78566 255 255 255
-0.158705  0.481798   1.45757 255 255 255
-1.33301 -1.67495  3.06484 255 255 255
-0.0803853    0.48613     1.7338 255 255 255
-0.0666076   0.488791    1.88818 255 255 255
0.130103 0.262895  1.54925 255 255 255
-0.231404  0.399837   1.49523 255 255 255
-1.67143   -1.789  1.96434 255 255 255
-1.88592 -1.89248  2.61708 255 255 255
0.0268175  0.304819   1.60558 255 255 255
  0.0946407 -0.00220441     1.54436 255 255 255
-0.124045  0.540364   1.49668 255 255 255
 0.15328 0.213466  1.57778 255 255 255
  0.109921 -0.0101019    1.57384 255 255 255
-1.97215 -1.76198  1.94105 255 255 255
-1.9723 -1.6962 1.92225 255 255 255
-0.133131  0.429786   1.53065 255 255 255
-0.0573672   0.500346     1.8254 255 255 255
0.139394 0.213238  1.57856 255 255 255
-1.83655 -2.24681  2.59698 255 255 255
-0.222723  0.486493    1.3534 255 255 255
0.147119 0.236962  1.66954 255 255 255
-1.86672 -1.68689  2.62446 255 255 255
-0.177638  0.455778   1.53294 255 255 255
0.122549 0.220985   1.5752 255 255 255
-0.374452  0.427041   1.26541 255 255 255
0.180833 0.157625  1.64358 255 255 255
0.0915426 0.0104516   1.54071 255 255 255
-0.0259408   0.363766    1.66167 255 255 255
-2.36601 -1.77567  2.88854 255 255 255
   0.144423 -0.00158351     1.68977 255 255 255
-0.0860357    0.52901    1.48433 255 255 255
 0.113816 -0.062154   1.51343 255 255 255
-1.85659 -1.70385   1.9909 255 255 255
0.0880603  0.143396   1.79418 255 255 255
-0.101617  0.430043   1.82706 255 255 255
0.0226131  0.312993   1.68381 255 255 255
 0.155016 0.0115994   1.64079 255 255 255
0.149927 0.011391  1.75122 255 255 255
0.0123054  0.325644   1.68451 255 255 255
0.00852275   0.185761    1.82018 255 255 255
-0.0285477  -0.129002    1.93396 255 255 255
-0.0738226   0.494079    2.03405 255 255 255
0.0717714 -0.204743    1.8206 255 255 255
-0.172179  0.478688   2.09066 255 255 255
-0.00876382    0.293374     1.74685 255 255 255
-0.0772779    0.49329    1.98591 255 255 255
-0.0506765    0.24624    1.80155 255 255 255
-0.086606  0.510056   2.03084 255 255 255
-0.093788  0.481895   1.96652 255 255 255
 0.0188577 -0.0656509    1.88309 255 255 255
0.0814937    0.1377   1.80946 255 255 255
0.140258 0.123404   1.6301 255 255 255
-0.0923438   0.494816     2.0753 255 255 255
0.0769811  0.248763   1.75444 255 255 255
0.0604238 -0.223848   1.81887 255 255 255
0.0190177  0.195999   1.82548 255 255 255
-0.0108678   0.308478    1.72966 255 255 255
-0.147492  0.506688   2.13082 255 255 255
-0.116515  0.475498   2.07723 255 255 255
0.118884 0.277971  1.69832 255 255 255
-0.0326685   -0.15265    1.91599 255 255 255
  0.124411 -0.0194627    1.80862 255 255 255
0.030032 0.190653    1.825 255 255 255
0.0511266  0.173677    1.8163 255 255 255
0.176954 0.167603  1.65439 255 255 255
-0.040014  0.491714   1.83724 255 255 255
-0.016853  0.334241   1.69443 255 255 255
0.0458688 -0.167178   1.89928 255 255 255
-0.138233  0.462009   1.98692 255 255 255
-0.0353975   0.505825    1.82277 255 255 255
0.100682 0.235559  1.74697 255 255 255
0.148084 0.282385  1.65558 255 255 255
0.059563  0.11043  1.83488 255 255 255
-0.0446437   0.489721     1.5914 255 255 255
-0.117269  0.361573   1.83543 255 255 255
0.116513 0.259628  1.70787 255 255 255
-0.155402   0.42249   1.92226 255 255 255
-0.165316  0.455816   2.04258 255 255 255
-0.110217  0.512346   2.06653 255 255 255
-0.0639183   0.510799    1.60296 255 255 255
0.0621175 0.0359137   1.85939 255 255 255
-0.211949   0.39754   1.97008 255 255 255
-0.161583  0.415474   1.97141 255 255 255
-0.0748064   0.466589    1.59651 255 255 255
-0.0318127   0.145942    1.86146 255 255 255
  0.155112 0.00763726    1.71235 255 255 255
0.195125 0.113939  1.60093 255 255 255
0.0423447 0.0936008   1.85257 255 255 255
-0.0429632   0.500708    1.83639 255 255 255
0.0093651 -0.081667   1.90939 255 255 255
-0.000710204    0.0107531        1.866 255 255 255
  0.183928 -0.0531929    1.70093 255 255 255
0.0699037 -0.154795    1.8614 255 255 255
0.0891105  0.269005   1.73066 255 255 255
0.056015 -0.16486  1.87126 255 255 255
-0.121459  0.472351   1.95718 255 255 255
-0.138215  0.476641   2.03241 255 255 255
 0.102224 -0.173614    1.8139 255 255 255
-0.0167849 -0.0109593    1.91347 255 255 255
-0.0674723   0.503482    2.04312 255 255 255
0.0109288  0.109282   1.51944 255 255 255
0.116551 0.248369  1.60532 255 255 255
   0.210304 -0.00956883     1.72486 255 255 255
0.126635 0.272008  1.66683 255 255 255
  0.166855 -0.0614857    1.63154 255 255 255
   -0.194253 -0.000705966      1.47131 255 255 255
-1.36361 -1.66186  3.13013 255 255 255
  0.154366 -0.0141129    1.68024 255 255 255
 0.0838975 -0.0520845    1.50669 255 255 255
 0.82531 -1.19979  5.07934 255 255 255
 -0.220543 -0.0920853    1.50189 255 255 255
0.0607945   1.65563   4.73329 255 255 255
-0.0216722   0.494955    1.78803 255 255 255
0.158861 0.201712  1.61819 255 255 255
-0.0493606   0.455491      1.856 255 255 255
-0.0901397  -0.233453    1.50336 255 255 255
-1.38188 -1.71136  2.94364 255 255 255
-0.0275407   0.463882    1.83667 255 255 255
-0.324965  0.284553   1.55333 255 255 255
0.967932 -1.33062  5.17284 255 255 255
-0.33912 0.326812  1.48052 255 255 255
0.667733  1.62368  4.61566 255 255 255
-0.00475942    0.567849     2.19593 255 255 255
0.0363326   1.72165   5.41958 255 255 255
-2.33762 -1.60136  5.74234 255 255 255
0.152769 0.170803  1.57598 255 255 255
 -0.3529 0.160012  1.40404 255 255 255
 0.0591405 -0.0141028    1.50915 255 255 255
-0.170893   0.46924   1.42482 255 255 255
 0.129376 -0.199642    1.5892 255 255 255
0.0966785  0.632353   1.99312 255 255 255
-1.37001 -1.70256  2.97778 255 255 255
-0.378266  0.345775   1.44726 255 255 255
-0.237588  0.448847   1.40144 255 255 255
0.731714 -1.44185  5.13517 255 255 255
-0.134787   1.24897   5.65182 255 255 255
 -0.223146 -0.0795441    1.49302 255 255 255
0.082868 0.638238  2.03908 255 255 255
0.0586776  0.608785   2.03175 255 255 255
0.413214 -1.28615  5.16951 255 255 255
-0.000913778      1.41447      5.60203 255 255 255
0.00881699   0.578264    1.74134 255 255 255
0.642481  1.48315  5.73991 255 255 255
0.0589589   1.19805   5.70318 255 255 255
-0.104507  0.287261   1.52643 255 255 255
0.0204766  0.567379   1.84992 255 255 255
-0.0582194   0.854259    5.78165 255 255 255
-0.215547 -0.136591   1.50907 255 255 255
-0.27879  1.47235  5.72102 255 255 255
0.379978  1.47354  5.67127 255 255 255
-0.962559   1.31245   5.90476 255 255 255
-0.329135  0.340161   1.46416 255 255 255
0.746571   1.2354  5.57364 255 255 255
0.0890445 0.0683379   1.51191 255 255 255
-0.0306545    1.43992    5.62755 255 255 255
-2.21875 -1.48263  5.68697 255 255 255
-0.0452408   0.516283    1.74351 255 255 255
0.139786 -1.47343  5.50092 255 255 255
0.0703264 -0.240817   1.53419 255 255 255
-0.153761  0.475373   1.46483 255 255 255
-0.0437376  -0.124943    1.46903 255 255 255
-0.0262394   0.558582    1.66929 255 255 255
0.433033 -1.68936  5.52342 255 255 255
-0.297598  0.352315   1.47406 255 255 255
   0.0845789 -0.000722811      1.52379 255 255 255
 -0.167793 -0.0151298    1.49055 255 255 255
-0.05041  0.26585  1.52802 255 255 255
-0.0417862   -0.19695     1.4969 255 255 255
-0.107951 -0.267269   1.51234 255 255 255
-0.0129382    1.74567    5.45277 255 255 255
0.407283  1.68226  5.00633 255 255 255
-0.0613208   0.455474     1.8507 255 255 255
-0.0474628   0.452414     1.8349 255 255 255
0.0337882   1.03131   5.75371 255 255 255
-0.274263  0.442535   1.36624 255 255 255
-0.0487943 -0.0809522    1.47639 255 255 255
-0.0200685   0.529838    1.74693 255 255 255
-0.217641  0.440774    1.4144 255 255 255
-0.108296 -0.126209   1.47429 255 255 255
-0.0557133   0.222827    1.50489 255 255 255
-0.189783 -0.182359   1.49783 255 255 255
  -0.21519 -0.0345259    1.46601 255 255 255
-0.522105   1.35086   5.79053 255 255 255
-0.275426  0.405218   1.43666 255 255 255
-0.0633691   0.315051    1.55547 255 255 255
-2.30479  -1.4415  5.63106 255 255 255
-0.307468   1.53164    5.6018 255 255 255
-0.270422  0.401612   1.41793 255 255 255
-0.170689 -0.294716   1.54304 255 255 255
0.00255188  -0.229488    1.51091 255 255 255
0.0155895 -0.236859   1.62696 255 255 255
0.0189984   0.54033    1.8584 255 255 255
0.0754904  0.610042   1.91504 255 255 255
-0.287991  0.389045   1.45126 255 255 255
0.0436817  0.597884   1.87076 255 255 255
-1.37743 -1.75294  2.99692 255 255 255
-0.146872 -0.102501   1.49347 255 255 255
-0.501685    1.4377   5.73424 255 255 255
-1.34967 -1.67948  2.92199 255 255 255
-0.0063678   0.564952    1.73854 255 255 255
0.0174247 -0.213221    1.5248 255 255 255
-0.35142  0.38095   1.3937 255 255 255
0.821893  -1.3797  5.11614 255 255 255
-0.0894801   0.174549    1.48937 255 255 255
-0.371455    1.3464   5.72585 255 255 255
-0.0222205   0.504948    1.76889 255 255 255
0.00082629   0.225565    1.50909 255 255 255
0.246835 0.893174  5.66492 255 255 255
0.0142533   0.56086   2.00512 255 255 255
-0.117499  0.258045   1.51768 255 255 255
-0.884071   1.34387   5.78515 255 255 255
0.0036348 -0.131973    1.4872 255 255 255
-2.29423 -1.36858  5.63737 255 255 255
-0.052141 -0.165566   1.48287 255 255 255
-0.00777237     0.55503      1.7307 255 255 255
-0.353933  0.402095   1.37013 255 255 255
-0.00857126   -0.157573     1.48056 255 255 255
-0.0694654 -0.0590928    1.47683 255 255 255
 -0.177956 -0.0672735     1.4664 255 255 255
 0.09393 0.648888  1.93421 255 255 255
0.0580742 -0.305133   1.62487 255 255 255
-0.063344 -0.159079   1.47558 255 255 255
-0.309327  0.405566   1.38796 255 255 255
-0.350856    1.3805   5.62672 255 255 255
-0.249293  0.417268   1.43811 255 255 255
-0.292773  0.396079   1.40052 255 255 255
0.0518815 -0.305248   1.60771 255 255 255
0.0482918  0.606699   2.04949 255 255 255
  0.184337 -0.0514014    1.67011 255 255 255
-0.0865639   0.287586     1.5395 255 255 255
-0.00253817    0.570674     1.70775 255 255 255
0.0311723 -0.263702   1.55015 255 255 255
-0.346061   0.34421   1.45289 255 255 255
-0.16782 0.412674  1.49412 255 255 255
-0.0450383  0.0118405    1.92136 255 255 255
0.0321745 0.0356172   1.86728 255 255 255
-0.0936116   0.449669    1.82274 255 255 255
0.0890093  0.221749   1.76757 255 255 255
0.0745478  0.175885   1.79796 255 255 255
-0.0629952    0.48962    1.76197 255 255 255
    0.13756 -0.00545342     1.68661 255 255 255
-0.0074805   0.188013    1.83288 255 255 255
0.0218595 0.0880793   1.72181 255 255 255
 0.0911916 -0.0446951    1.54609 255 255 255
0.110654 0.241311  1.63995 255 255 255
0.146714 0.197552  1.59307 255 255 255
  0.0836894 -0.00205973     1.81521 255 255 255
0.0784851  0.241482   1.58653 255 255 255
-0.0093459  -0.244728    1.86501 255 255 255
-0.258572  0.377676   1.46284 255 255 255
 0.215562 0.0987885   1.59525 255 255 255
0.165415 0.115125  1.57208 255 255 255
-0.0157597   0.344466    1.63231 255 255 255
  0.122427 -0.0541339    1.56096 255 255 255
0.0733479  0.178534   1.52658 255 255 255
-0.122553  0.455276   1.84386 255 255 255
-0.197659  0.365626   1.86023 255 255 255
   0.10309 -0.0369799    1.54372 255 255 255
-0.136914  0.435511    1.5557 255 255 255
-0.0763429   0.378057     1.5974 255 255 255
  0.106794 -0.0910048    1.54419 255 255 255
-0.00249723 0.000607199     1.87566 255 255 255
-0.47908 0.416423  1.21683 255 255 255
0.171639 0.138402  1.58919 255 255 255
0.137257  0.15272  1.68826 255 255 255
0.150736 0.278359  1.59321 255 255 255
0.115143 0.172926   1.5517 255 255 255
 0.10145 0.169481  1.55003 255 255 255
 0.15726 0.087206  1.66951 255 255 255
0.0231436  0.153557   1.82345 255 255 255
   0.1963 0.0835447   1.64262 255 255 255
0.106825 0.300419   1.6598 255 255 255
-0.127351  0.464072   1.95915 255 255 255
0.129989 0.194632  1.55216 255 255 255
-0.0529472   0.225109    1.81744 255 255 255
0.0160872  0.321178   1.64481 255 255 255
-0.0544813  0.0460372    1.89248 255 255 255
0.0614018  0.313125   1.62922 255 255 255
-0.0271756   0.341105    1.68132 255 255 255
0.203598 0.103866  1.63564 255 255 255
0.0505774  0.237865   1.78094 255 255 255
-0.218643  0.430745   1.44174 255 255 255
0.123235 0.294119  1.58112 255 255 255
-0.158117  0.435858   1.92838 255 255 255
0.0137468  0.301313   1.57695 255 255 255
-0.0996754   0.204776    1.84791 255 255 255
-1.73045 -1.78351   1.8955 255 255 255
-0.419057  0.401578   1.37143 255 255 255
-0.155633  0.352799   1.83715 255 255 255
-0.385253  0.427669   1.27387 255 255 255
-0.0447285   0.327651    1.75457 255 255 255
-0.268238    0.4071   1.45923 255 255 255
 0.168714 0.0846517     1.652 255 255 255
-0.0859957  -0.254883    1.93664 255 255 255
 0.142111 -0.204842   1.73771 255 255 255
 0.205029 0.0971406   1.56314 255 255 255
0.011129 0.316317   1.6794 255 255 255
-0.46522 0.411042  1.25902 255 255 255
0.0989669  0.302695   1.59148 255 255 255
 0.109875 -0.218935   1.75971 255 255 255
 0.111106 -0.218006   1.75938 255 255 255
-0.0906711 -0.0216482    1.94276 255 255 255
-0.103991 0.0685988   1.92013 255 255 255
0.0649332  0.134111   1.81195 255 255 255
-6.9484e-05    0.324586     1.67764 255 255 255
 0.0494397 -0.0419701    1.51129 255 255 255
-0.0981595  0.0184609    1.91422 255 255 255
 0.0161557 -0.0240451    1.50499 255 255 255
   0.098507 -0.00731459     1.57682 255 255 255
-0.112334   0.31024   1.55244 255 255 255
