ply
format ascii 1.0
element vertex 1134
property float x
property float y
property float z
property uchar red
property uchar green
property uchar blue
end_header
0.0785886 -0.117544   1.52264 255 255 255
 0.49321 -1.94801  5.84874 255 255 255
-1.86284 -1.70825  6.05842 255 255 255
-2.40223 -1.75157  6.18898 255 255 255
-0.176274 0.0228439   1.48178 255 255 255
-0.349321  0.325966   1.49566 255 255 255
-0.160995  0.480846   1.40997 255 255 255
-0.346943  0.411814   1.36778 255 255 255
0.721609  1.65234   4.7427 255 255 255
-0.323266  0.440563   1.28995 255 255 255
-0.206226   0.50073   1.34044 255 255 255
-0.055457  0.563552   1.55375 255 255 255
-0.0482486  -0.197197    1.49961 255 255 255
-0.17874 0.454771  1.46024 255 255 255
 -0.140416 0.00416395    1.49446 255 255 255
-0.250149  0.476872    1.3343 255 255 255
-0.368814  0.380073     1.391 255 255 255
0.0105811  -0.18861   1.50572 255 255 255
0.00245727   0.534856    1.75344 255 255 255
0.166967 0.112631  1.59508 255 255 255
-0.277433  0.462065    1.3305 255 255 255
-0.102805 -0.231262   1.50578 255 255 255
-0.123932  0.439783   1.53014 255 255 255
-0.0162863   0.505589    1.76334 255 255 255
-0.337488  0.408373   1.32848 255 255 255
-0.315357  0.344447   1.49432 255 255 255
-0.33451 0.409527  1.36778 255 255 255
-0.228666  0.431864   1.41193 255 255 255
-0.32409  0.34711  1.46541 255 255 255
-0.0780552   0.544698    1.50812 255 255 255
-0.214602 -0.068419   1.48764 255 255 255
-0.032376  0.569369   1.60934 255 255 255
-0.0333617     0.5049    1.74469 255 255 255
-0.120236  0.182555   1.51683 255 255 255
-0.295547  0.424796   1.39603 255 255 255
0.659194  1.57825  5.92799 255 255 255
-0.191754 -0.245789   1.53006 255 255 255
-0.294648   0.43049    1.3349 255 255 255
-2.47313 -1.73229  6.25672 255 255 255
-0.167244  0.472384   1.44909 255 255 255
-1.87311 -1.64687  6.05111 255 255 255
-0.153113   0.51571   1.40653 255 255 255
0.944737  1.51138  5.77485 255 255 255
0.949993  1.58924  5.68124 255 255 255
  -0.152938 -0.00338639     1.50868 255 255 255
0.658334 -1.35687  5.50501 255 255 255
-0.168928 -0.251462   1.53428 255 255 255
0.72134 1.68347 4.58276 255 255 255
-0.267021  0.481895   1.30852 255 255 255
-0.00307664   -0.186211     1.50205 255 255 255
-0.00595397  -0.0874164     1.49513 255 255 255
-0.12901 0.531782  1.41939 255 255 255
0.076784 0.627238  1.74528 255 255 255
0.755562  1.47553  5.94404 255 255 255
-0.324323  0.441239   1.28254 255 255 255
-0.166081  0.465333   1.42319 255 255 255
0.898577  1.80906  4.72432 255 255 255
 0.124467 0.0179567   1.60509 255 255 255
1.09803 1.37003 5.82109 255 255 255
-0.00668755   -0.148514     1.49365 255 255 255
-0.198999  0.496682   1.35839 255 255 255
0.0562478  0.609755   1.80049 255 255 255
-0.192048  0.452432   1.43063 255 255 255
0.771422  1.95986  4.77244 255 255 255
1.00319 1.45197 5.79159 255 255 255
-0.27339 0.399981  1.42792 255 255 255
0.750624   1.8591  4.79295 255 255 255
0.748382  1.99041   4.8063 255 255 255
1.08214 1.60377 5.81595 255 255 255
-0.0396258   0.578169     1.5193 255 255 255
-0.00905558    0.560724     1.70973 255 255 255
  0.110581 -0.0128174    1.55303 255 255 255
0.871276  1.30058  5.89741 255 255 255
0.0593349  0.285258   1.58276 255 255 255
-0.150387  0.467593   1.49192 255 255 255
-0.255067  0.473226   1.33182 255 255 255
-1.94682 -1.54866  5.93324 255 255 255
0.0272587   0.56095   1.78853 255 255 255
-1.92556 -1.62661  6.05689 255 255 255
-0.188111  0.497096   1.35776 255 255 255
-0.318621  0.335066   1.48737 255 255 255
-0.223465  0.437011   1.45231 255 255 255
-0.237122  0.439933   1.40145 255 255 255
-0.0704432  -0.103197    1.49318 255 255 255
0.707398  1.96744  4.75175 255 255 255
0.0572134 -0.223106    1.5427 255 255 255
0.0146211   0.51737   1.79403 255 255 255
-0.297457  0.406807   1.40391 255 255 255
-0.0633375 -0.0504011    1.49789 255 255 255
-0.292165  0.387849   1.42343 255 255 255
0.796762  1.81247  4.66793 255 255 255
-2.31668   -1.713  6.12164 255 255 255
-0.152152 -0.198965   1.50432 255 255 255
 -0.16108 -0.233805   1.51294 255 255 255
-0.275638  0.466351   1.31818 255 255 255
-2.04292  -1.7028  6.16328 255 255 255
-0.0638365   0.209189     1.5173 255 255 255
0.0465588   1.46056   5.90025 255 255 255
-0.0301569   0.609061    1.54493 255 255 255
-0.0557751  -0.189033    1.48826 255 255 255
-0.353432  0.363745   1.44057 255 255 255
-2.26913 -1.75468  6.21542 255 255 255
-0.0995884  -0.198588    1.49293 255 255 255
-0.381462  0.368688   1.43316 255 255 255
-0.235461 -0.170601   1.53281 255 255 255
0.042678 0.615905  1.80779 255 255 255
-0.200666  0.503485   1.34047 255 255 255
  0.150912 -0.0246454    1.60122 255 255 255
-2.18519 -1.63647  6.09081 255 255 255
-0.291751   0.43026   1.38809 255 255 255
-0.123756 -0.079304   1.50477 255 255 255
0.815572  1.89592  4.67548 255 255 255
 -0.134642 -0.0884805    1.50133 255 255 255
-0.320463  0.337965   1.47678 255 255 255
-0.189958  0.385105   1.50048 255 255 255
0.0425633 -0.130555   1.50378 255 255 255
-0.0225511  -0.145994    1.48925 255 255 255
-2.24288 -1.66029  6.14234 255 255 255
-0.199389  0.452337   1.45064 255 255 255
0.482061  1.67047  5.03944 255 255 255
0.913637  1.70703  4.71272 255 255 255
-0.275435  0.468517   1.32644 255 255 255
-0.248981   0.41506   1.43247 255 255 255
-0.140599  0.466663    1.5063 255 255 255
  0.102531 -0.0562447    1.51413 255 255 255
-0.100369  0.117683    1.4998 255 255 255
-0.233589  0.390926      1.48 255 255 255
0.158766  0.14024   1.5906 255 255 255
-0.284433  0.431549   1.37276 255 255 255
0.944585  1.54241  5.75818 255 255 255
-0.0668528  -0.223052    1.50823 255 255 255
-0.0791336   0.470246    1.63716 255 255 255
1.16929 1.16722 5.86361 255 255 255
-0.322353  0.415487   1.33478 255 255 255
-0.233984  0.486717   1.32143 255 255 255
-0.325449  0.412619   1.32935 255 255 255
-0.324493  0.448812   1.27561 255 255 255
-0.180257  0.388255   1.50314 255 255 255
 -0.18886 -0.256139   1.53249 255 255 255
-2.29743 -1.65281   6.1952 255 255 255
-0.0187257  -0.043337    1.49059 255 255 255
-0.0423756  -0.145322    1.49016 255 255 255
-0.221165  0.452532   1.34903 255 255 255
-0.212852  0.504125   1.34044 255 255 255
0.201778  -1.5056  5.62231 255 255 255
-0.385543  0.370602   1.42245 255 255 255
-0.0165397    0.51385    1.70905 255 255 255
-2.24312 -1.40054  6.10861 255 255 255
-0.296195  0.430576   1.38516 255 255 255
-0.253327  0.430199   1.41131 255 255 255
-0.204075  0.505756   1.33767 255 255 255
0.581065  1.54771  5.96616 255 255 255
-0.331017  0.378873   1.42975 255 255 255
-2.15712 -1.49438   6.0564 255 255 255
0.875515  1.65248  5.63104 255 255 255
-0.140875  0.479955   1.48812 255 255 255
-0.271787  0.464912   1.33448 255 255 255
-0.0386509   0.218703    1.51927 255 255 255
-0.130526 -0.187857    1.4939 255 255 255
0.165686 0.127095  1.59282 255 255 255
0.0305129 -0.237294   1.53292 255 255 255
 1.02093 -1.41992  5.36968 255 255 255
-0.389203  0.365714   1.44471 255 255 255
0.164119 0.186705  1.61105 255 255 255
-0.251983  0.481292   1.31128 255 255 255
-0.310694  0.441686   1.29785 255 255 255
-0.0244027    0.52369    1.69322 255 255 255
-0.179043  -0.18526   1.50708 255 255 255
0.00521093   0.185648    1.50782 255 255 255
0.167797 0.182994  1.62198 255 255 255
0.657868  1.41694  5.97021 255 255 255
-0.214631 -0.127502   1.51935 255 255 255
1.09119 1.27156 6.12817 255 255 255
-0.0750126   0.566577    1.47922 255 255 255
0.794765  1.80613  4.71077 255 255 255
-0.270631  0.406196   1.42064 255 255 255
-0.249631   0.43291   1.40027 255 255 255
-0.258957  0.489512   1.31171 255 255 255
-0.371183  0.369806   1.42359 255 255 255
-0.234396 -0.107563   1.52562 255 255 255
 0.12603 0.743627  2.91515 255 255 255
0.00982348   0.579283     1.7015 255 255 255
-0.222987 -0.112461   1.52165 255 255 255
0.862646  1.96816  4.50868 255 255 255
-0.340429  0.412556   1.34973 255 255 255
-0.114608  0.499185   1.51714 255 255 255
-2.01965 -1.75176   6.0929 255 255 255
-0.0721555  0.0689949    1.49387 255 255 255
1.12334  1.3172 5.89479 255 255 255
-0.320501  0.343254   1.47159 255 255 255
0.755952  1.79649  4.68942 255 255 255
-0.195431  0.491789   1.33376 255 255 255
-0.107567  0.264698   1.53618 255 255 255
1.04378  1.5883 5.77772 255 255 255
0.000217712    0.537889     1.70783 255 255 255
-2.42869 -1.69509   6.3243 255 255 255
0.711821  1.45674  5.90358 255 255 255
0.999856 -1.47607  5.24735 255 255 255
0.0303582 -0.167547   1.50429 255 255 255
0.0564233 -0.205739   1.53145 255 255 255
-0.114137  0.501693   1.50659 255 255 255
 0.02216 0.634384  1.64764 255 255 255
 -0.191733 -0.0918245    1.50894 255 255 255
-0.302727  0.405334   1.40238 255 255 255
0.159524 0.122112  1.58519 255 255 255
-0.194576  0.399988   1.49477 255 255 255
-0.155648  0.466619   1.48432 255 255 255
 1.08394 -1.33368  5.37741 255 255 255
 -0.079416 -0.0191637    1.49644 255 255 255
-0.00507908    0.577341     1.69153 255 255 255
-0.154212 -0.203322   1.50762 255 255 255
-0.320542  0.441126   1.32075 255 255 255
-0.367843  0.400407   1.37592 255 255 255
-0.232726  0.423526   1.44344 255 255 255
0.0205982   0.27638   1.55808 255 255 255
 -1.7691 -1.84917  6.36334 255 255 255
-0.077371  0.322725   1.56849 255 255 255
-2.47252 -1.63427  6.24577 255 255 255
0.299721  -1.5408  5.55306 255 255 255
-0.128808  0.527761   1.39296 255 255 255
-0.0349342   0.189264    1.50617 255 255 255
-0.115936  0.529513   1.45758 255 255 255
-2.15725 -1.43231  6.26347 255 255 255
-0.320648  0.375016   1.44599 255 255 255
0.0474157   1.48137   5.85703 255 255 255
-0.257821 -0.108832   1.53947 255 255 255
-0.179613  0.394139   1.50354 255 255 255
-0.0207976   0.132765    1.49945 255 255 255
-0.271805  0.476044   1.30972 255 255 255
-0.285192  0.434066   1.39462 255 255 255
-0.0236501   0.595454    1.54921 255 255 255
-0.08645 0.164308  1.51639 255 255 255
0.949285  1.85356  4.64885 255 255 255
-0.24599 0.419333  1.42537 255 255 255
-0.0153827   0.554744    1.67936 255 255 255
-0.136235  0.475249   1.49192 255 255 255
-0.091354  0.226271   1.52778 255 255 255
 -0.104749 -0.0793084     1.4952 255 255 255
 -0.277031 -0.0547947    1.56409 255 255 255
-0.0541894  0.0833573    1.48942 255 255 255
-0.274716  0.473385   1.30742 255 255 255
-0.395939   0.33488   1.50867 255 255 255
0.290408 -1.53359  5.46711 255 255 255
0.271103 -1.43625  5.50092 255 255 255
-0.0736534 -0.0400657    1.49442 255 255 255
-0.0874071  -0.127527    1.48893 255 255 255
-0.155895  0.413561   1.51359 255 255 255
0.822316  1.93003  4.65441 255 255 255
-0.012326  0.168245   1.49799 255 255 255
 0.178277 0.0145571   1.62173 255 255 255
-0.0614729   -0.20781    1.49245 255 255 255
-0.115524 -0.189649   1.48967 255 255 255
-0.0673106   0.578523    1.48184 255 255 255
0.0903085  0.249686   1.55081 255 255 255
-0.0291441   0.190371    1.50654 255 255 255
 0.95224 -1.40505  5.37147 255 255 255
-0.327157  0.330125    1.4873 255 255 255
-0.294104  0.410293   1.40947 255 255 255
-0.0946416   0.535543    1.49495 255 255 255
-0.0572316   0.243231    1.53587 255 255 255
-0.0492033   0.589595    1.51837 255 255 255
-0.11009 0.506454  1.50394 255 255 255
-0.215398  0.489897   1.33388 255 255 255
-0.338858  0.377012   1.41171 255 255 255
 -0.178424 -0.0933736    1.50284 255 255 255
-0.224543  0.436694   1.42261 255 255 255
-0.0496457   0.124192    1.49337 255 255 255
-0.0362405   0.527572    1.68481 255 255 255
0.876085  1.92488  4.63342 255 255 255
-0.339452  0.404016   1.38441 255 255 255
-0.04313 0.521712   1.6759 255 255 255
-0.0164733  -0.147308    1.48892 255 255 255
-0.290745  0.422202   1.39815 255 255 255
-1.79543 -1.78425  6.17193 255 255 255
-0.243438   0.43074    1.3986 255 255 255
-0.133225  0.530252   1.41456 255 255 255
-0.194659  0.462397   1.40929 255 255 255
0.266246 -1.58466  5.50234 255 255 255
-0.25305 0.409964  1.43078 255 255 255
-0.0891971   -0.16726     1.4884 255 255 255
-0.298664  0.348871   1.48618 255 255 255
-0.214163  0.444641   1.41935 255 255 255
 -0.15544 -0.208243    1.5053 255 255 255
-0.33005 0.326124  1.49254 255 255 255
-0.192754  0.394621   1.49475 255 255 255
0.0512645  0.144998   1.51347 255 255 255
-0.0389166   0.479197    1.84542 255 255 255
  0.051867 -0.0126926     1.5055 255 255 255
0.308135 -1.34801   5.3454 255 255 255
-0.144177   0.48362   1.45066 255 255 255
 0.145282 -0.216984   1.74936 255 255 255
-0.0105514   0.511323    1.79762 255 255 255
0.353811 -1.45965  5.56241 255 255 255
-0.30949 0.387286  1.43007 255 255 255
-0.162461    0.4455   1.49515 255 255 255
-0.163179  0.447195   1.49683 255 255 255
-0.247665  0.487678   1.31907 255 255 255
-0.154722  0.476615   1.43696 255 255 255
0.0868177  0.611227   1.91356 255 255 255
-0.157748  0.439353   1.50567 255 255 255
-0.0895513 -0.0695668    1.49685 255 255 255
0.00504578   0.519221     1.7973 255 255 255
-0.308937  0.387616    1.4083 255 255 255
-0.067407   0.52551   1.57869 255 255 255
-0.191997  -0.35261   1.65671 255 255 255
-0.115384   1.61074   6.11972 255 255 255
0.0339058  0.550204   1.91607 255 255 255
0.142076  1.01701  5.92321 255 255 255
0.042678 0.615905  1.80779 255 255 255
-0.089379  0.484969   1.58946 255 255 255
-0.997791  0.701183   6.48853 255 255 255
0.134543   1.2399  5.87156 255 255 255
0.270207  -1.4525  5.36367 255 255 255
-0.358585   1.54139   6.00225 255 255 255
-0.123515   1.49437   5.81251 255 255 255
-0.226574 -0.342043   1.64229 255 255 255
-0.0969259   0.526183    1.52155 255 255 255
0.08331 1.62214 5.72481 255 255 255
-0.0821356    1.49544     5.8805 255 255 255
-0.00907083    0.543732     1.71938 255 255 255
-0.0567724   0.947525     5.9768 255 255 255
-0.0370325   0.537483    1.66808 255 255 255
-0.0772684    1.37702    5.89493 255 255 255
-0.150495   1.47761   5.86789 255 255 255
0.0176295  0.593537   1.70808 255 255 255
-0.00717905    0.575761      1.6786 255 255 255
-0.155475 0.0293124   1.48815 255 255 255
-0.10183 0.515592  1.51753 255 255 255
-1.44731 -1.69563  3.13856 255 255 255
-0.119525  0.493753   1.50883 255 255 255
-0.185876   1.48803   5.98809 255 255 255
0.175134 0.113916  1.60114 255 255 255
-0.0389946  0.0985157    1.48978 255 255 255
-0.317111  0.374235   1.45547 255 255 255
-1.13935  1.07293  7.36041 255 255 255
  0.138028 -0.0435378    1.53368 255 255 255
-0.00286523     1.51946     5.81974 255 255 255
-1.05957 0.774492  6.46356 255 255 255
-0.81124  1.13509  7.28402 255 255 255
-0.212813   0.45206   1.40093 255 255 255
-0.0651075   0.497002    1.66628 255 255 255
-0.0651872   -0.17189     1.5012 255 255 255
-0.101802    0.5154   1.50438 255 255 255
-0.0522345   0.104293    1.49233 255 255 255
-0.0797814   0.266222    1.54595 255 255 255
-0.101882  0.513296      1.53 255 255 255
-0.621496   0.86869   7.22788 255 255 255
0.103607 0.163888  1.54003 255 255 255
-0.100992  0.117518   1.50085 255 255 255
-0.385791   1.31188   6.05991 255 255 255
0.0334968 -0.196433   1.51738 255 255 255
0.0397658  0.607847   1.80273 255 255 255
-0.0742467  -0.112948    1.49597 255 255 255
-0.0678997   0.329425    1.57014 255 255 255
 -0.062889 -0.0515463     1.4961 255 255 255
-0.940998  0.705028   6.54303 255 255 255
-0.118856  0.501234   1.50226 255 255 255
-0.0929891   0.480079    1.56142 255 255 255
0.00612937   0.138871    1.49487 255 255 255
-0.0567522   0.449364    1.90015 255 255 255
-0.142634  0.517086   1.42115 255 255 255
0.0530619 -0.312578   1.63151 255 255 255
-0.185684  0.292508   1.51183 255 255 255
-0.760139  0.800424   7.36965 255 255 255
-0.109068  0.513132   1.50417 255 255 255
0.128276   1.6497  4.82903 255 255 255
-0.00311973    0.209232     1.51609 255 255 255
-0.0190633   0.553559    1.66657 255 255 255
-0.067807  0.501449   1.58695 255 255 255
-0.320273  0.363913   1.45137 255 255 255
-0.072071 0.0698301   1.49265 255 255 255
-0.174878  0.405451   1.50405 255 255 255
-0.100494  0.263563    1.5405 255 255 255
-1.52313 -1.65941  3.26591 255 255 255
-0.155274  0.466372   1.48391 255 255 255
-0.225625  0.406671   1.49242 255 255 255
0.263417 -1.56007  5.56292 255 255 255
-0.0503075   0.130182    1.49381 255 255 255
0.380477 -1.33347  5.44865 255 255 255
-0.324507   0.38207   1.43211 255 255 255
0.0841348   1.70641   5.00973 255 255 255
0.00230166 -0.0992185    1.49339 255 255 255
0.311172 0.235391  1.22594 255 255 255
-0.124942  0.442456   1.54827 255 255 255
-0.250517  0.434451   1.42064 255 255 255
-0.251304  0.380924   1.48449 255 255 255
0.0266892   0.17515   1.50523 255 255 255
-0.00236368    0.129207     1.49394 255 255 255
 -0.029165 -0.0528573     1.4936 255 255 255
-0.200785  0.447116   1.45516 255 255 255
-0.0424581   0.523102    1.70519 255 255 255
 -0.0538983 -0.00517491     1.48597 255 255 255
0.155978   1.3429  5.95234 255 255 255
-0.0700545  0.0187538    1.49102 255 255 255
0.151842 0.247779  1.56228 255 255 255
0.055924  1.64714  5.73438 255 255 255
0.239541 0.328478  1.52776 255 255 255
0.0520221  0.577424   2.03986 255 255 255
-0.0210536 -0.0367405    1.48841 255 255 255
0.199076 -1.65663  5.70304 255 255 255
-0.174169  0.413804   1.50097 255 255 255
-0.257146  0.477765   1.32817 255 255 255
-0.0296212   0.150085    1.49763 255 255 255
-0.244685  0.411814   1.46871 255 255 255
-0.110247  0.256571   1.53601 255 255 255
-0.342103  0.387313   1.40012 255 255 255
0.00698415  -0.218709    1.51636 255 255 255
   0.115229 -0.00826867     1.55607 255 255 255
-1.35124 -1.67607  3.12247 255 255 255
-1.48336 -1.64226  3.23307 255 255 255
-0.282597  0.392894   1.45398 255 255 255
-1.55692 -1.67733  3.32473 255 255 255
 0.108647 -0.156243   1.61705 255 255 255
 0.282809 -0.029394   1.83865 255 255 255
-0.226379 0.0825217   1.52754 255 255 255
0.0287745 0.0466189   1.49057 255 255 255
-0.147382 0.0587339   1.48823 255 255 255
0.00977406 -0.0985285    1.51146 255 255 255
-0.206033 -0.277227   1.60723 255 255 255
-0.357511  0.394969   1.38326 255 255 255
0.202694 0.146371  1.64828 255 255 255
-0.0294116   -0.04707    1.49008 255 255 255
 -0.169998 -0.0336734    1.48362 255 255 255
 -0.178984 -0.0993067    1.50532 255 255 255
-0.461029  0.408892   1.37801 255 255 255
-0.0159786   0.609314    1.56103 255 255 255
-0.125571  0.427261   1.53959 255 255 255
0.160726 0.223255  1.65081 255 255 255
  0.104734 -0.0702903    1.52241 255 255 255
 -0.180974 -0.0187307    1.48207 255 255 255
-0.223254  0.452307   1.35004 255 255 255
-0.0514069   0.583492    1.54422 255 255 255
-0.0357698   0.598657     1.5408 255 255 255
-0.0624777   0.320392    1.57367 255 255 255
-0.290172  0.402521   1.40903 255 255 255
0.851123  1.81513  4.68876 255 255 255
-0.0212611 -0.0327231     1.4936 255 255 255
-0.242256  0.341394   1.49916 255 255 255
-0.196686  0.363107   1.50034 255 255 255
-0.170141 0.0790427    1.5272 255 255 255
 0.190163 0.0989031   1.59758 255 255 255
0.0389433  0.575978   1.79152 255 255 255
-0.351868  0.402081   1.37615 255 255 255
 -0.271989 -0.0535272    1.54668 255 255 255
-0.205284 -0.177775   1.51951 255 255 255
-0.227474 -0.201358   1.53711 255 255 255
-0.216038 -0.204133   1.53667 255 255 255
-0.280972  0.423197   1.40295 255 255 255
-0.247816  0.352518   1.48951 255 255 255
-0.256108  0.357691   1.48487 255 255 255
0.798143 -1.74454    5.631 255 255 255
-0.00797403   -0.110762     1.49469 255 255 255
-0.179223   -0.2349   1.51538 255 255 255
-0.339124  0.411546    1.3773 255 255 255
-0.107811 -0.194966   1.49383 255 255 255
 -1.9539 -1.66216  6.24591 255 255 255
-0.168588 -0.243617    1.5405 255 255 255
-0.0679584   0.176673    1.50006 255 255 255
-0.216751 -0.187481    1.5337 255 255 255
0.470276 -1.84644   5.7529 255 255 255
-0.159553 -0.116559   1.48558 255 255 255
0.950315 -1.31613  5.29797 255 255 255
0.662338  1.36218  5.88023 255 255 255
 0.12362 0.269069  1.57746 255 255 255
-0.0527136 -0.0605164    1.49108 255 255 255
-0.323369   0.38169   1.42397 255 255 255
-0.206676 -0.160751    1.5237 255 255 255
  0.126346 -0.0628815    1.53569 255 255 255
-0.14808 0.471545  1.46301 255 255 255
-0.348306  0.327472   1.51094 255 255 255
0.115638 0.181582  1.55885 255 255 255
-0.151622  0.457432   1.50105 255 255 255
 0.18224 0.273276  1.54297 255 255 255
-0.125993 0.0528489   1.49616 255 255 255
-0.0780464  -0.106779    1.49723 255 255 255
-0.0472871  -0.159368    1.48926 255 255 255
  -0.0551068 -0.000254111      1.48567 255 255 255
-0.0581515   0.597383    1.48702 255 255 255
1.0713 1.2391 5.8034 255 255 255
-0.0693916   0.280693    1.55495 255 255 255
-0.192622  0.377095   1.49786 255 255 255
1.19309 1.31824 5.88903 255 255 255
-0.22725 0.439073  1.43305 255 255 255
-0.067681 0.0276912   1.48561 255 255 255
 -0.0406164 -0.00310319     1.48153 255 255 255
 -1.0094 0.743554   6.2951 255 255 255
-0.148756  0.482084   1.45667 255 255 255
-0.111351 -0.115144   1.49237 255 255 255
 1.01432 -1.36666  5.49776 255 255 255
-0.131943 -0.208252   1.49861 255 255 255
0.946797  1.47118  5.77369 255 255 255
-0.0405792  0.0993238    1.49358 255 255 255
-0.159571  0.425474   1.50575 255 255 255
-0.279338  0.429484   1.40326 255 255 255
-0.333296  0.400038    1.3926 255 255 255
-0.170695 -0.180394   1.50457 255 255 255
-0.0993299   0.267058    1.53466 255 255 255
-0.117173 -0.149038   1.49181 255 255 255
-0.126681  0.548089   1.41469 255 255 255
0.000403274    0.168134     1.50341 255 255 255
0.327473 -1.74838  5.86161 255 255 255
0.170491 0.124208  1.62035 255 255 255
-0.0754754 -0.0923939    1.49673 255 255 255
-0.0759779 -0.0922797    1.49239 255 255 255
-0.0371693 -0.0295792    1.49105 255 255 255
-0.169779 -0.149275   1.49944 255 255 255
-0.170032 -0.149705   1.49946 255 255 255
 0.148331 0.0547446   1.60238 255 255 255
0.0344931  0.140209   1.49603 255 255 255
-0.0440611   0.610618    1.50074 255 255 255
-0.234243 -0.210017   1.53801 255 255 255
-0.249705  0.433621   1.39894 255 255 255
-0.200271 -0.245918   1.53026 255 255 255
-0.0348692  -0.224636    1.50288 255 255 255
-0.0399757   0.155473    1.49725 255 255 255
-0.124632 -0.102469    1.4926 255 255 255
 -0.14494 -0.127444   1.49045 255 255 255
-0.114097   0.53145   1.46392 255 255 255
-0.0768143  -0.124378    1.48742 255 255 255
-0.401861  0.389799    1.3891 255 255 255
1.16929 1.16722 5.86361 255 255 255
0.422957 0.574582  2.58329 255 255 255
 -0.19737 -0.183547   1.53628 255 255 255
1.10912  1.2852 5.89607 255 255 255
0.0548215  0.260151   1.55345 255 255 255
-0.0715738   0.237702    1.53213 255 255 255
0.395528 -1.90077  5.73806 255 255 255
0.0219394  0.289516   1.56843 255 255 255
0.987478   -1.383  5.36993 255 255 255
-0.0936887   0.260615    1.53974 255 255 255
-0.357059  0.407602   1.32005 255 255 255
-0.391546  0.393343   1.38129 255 255 255
0.350864 -1.97786  6.13155 255 255 255
-0.33801  0.43036  1.30362 255 255 255
-0.0293415  0.0677029    1.48261 255 255 255
 -0.19463 -0.151777   1.52721 255 255 255
0.0418387 -0.220187   1.52967 255 255 255
-1.96512 -1.68638  6.21371 255 255 255
0.445419 -1.91358  5.79345 255 255 255
-0.151152  0.514947   1.40949 255 255 255
-0.151342  -0.13044   1.50375 255 255 255
-0.445893  0.402497   1.37391 255 255 255
-0.0350731 -0.0222723    1.48503 255 255 255
0.0823696 -0.181788   1.53717 255 255 255
0.889382  -1.4544  5.40746 255 255 255
-0.284174  0.428051   1.39672 255 255 255
-0.347134  0.408192   1.32428 255 255 255
-0.0507226    0.20199    1.51361 255 255 255
0.564467 -1.87081  5.88739 255 255 255
-0.195797  0.402428   1.48453 255 255 255
-0.0842604   0.163955     1.5011 255 255 255
-0.0516291   0.113845    1.49334 255 255 255
-0.161376 -0.206432   1.51169 255 255 255
 1.11085 -1.28508  5.29278 255 255 255
-0.0583114   0.565425    1.53819 255 255 255
0.522517 -1.88552  5.87267 255 255 255
0.759102  1.61126  5.76246 255 255 255
0.962034  1.83724  4.64661 255 255 255
-0.00299359    0.160578      1.4986 255 255 255
-0.203219  0.443005   1.41923 255 255 255
-0.337175  0.366549   1.44165 255 255 255
-0.00694563    0.169548     1.50583 255 255 255
-0.0652061   0.510603    1.58662 255 255 255
-0.252984   0.46925   1.34256 255 255 255
-0.271265  0.474167   1.33605 255 255 255
 -0.239985 -0.0647126    1.53632 255 255 255
0.933284  1.43926  5.76955 255 255 255
1.16437 1.19605 5.87599 255 255 255
-0.0989131  -0.261045    1.52123 255 255 255
-2.27033 -1.81092  6.31722 255 255 255
-0.349742  0.420996    1.3071 255 255 255
-0.29078 0.460456  1.31848 255 255 255
0.926934 -1.48411  5.35577 255 255 255
-0.259717  0.488489   1.33922 255 255 255
-0.182098  -0.25551    1.5435 255 255 255
-0.10595 0.123291  1.50325 255 255 255
-0.269708  0.386056   1.46302 255 255 255
-0.0741267  0.0765706    1.49049 255 255 255
-0.254576  0.412469   1.43361 255 255 255
0.808492 -1.44269  5.39915 255 255 255
-0.248197 -0.243609   1.59888 255 255 255
-0.0365121  -0.154832    1.48914 255 255 255
-0.174311 -0.268603    1.6879 255 255 255
-0.0326872  0.0905082    1.50129 255 255 255
-1.50783 -1.78086  3.06242 255 255 255
-0.0804248    0.45809     1.7616 255 255 255
0.0764041  0.714612   1.69129 255 255 255
-0.270694  0.398915    1.4349 255 255 255
-0.191378  0.450528   1.42073 255 255 255
0.203912 0.111301  1.58743 255 255 255
  0.114383 -0.0544041    1.52794 255 255 255
-0.0652016    0.56403     1.5334 255 255 255
-0.263529  0.487386   1.31318 255 255 255
0.0201786  0.613883   1.67637 255 255 255
-1.09443 0.794897  7.40103 255 255 255
-0.0113768   0.551618    1.65737 255 255 255
-0.199883  0.410417   1.49061 255 255 255
-0.0642662   -1.17252    5.13845 255 255 255
-1.10925 0.709593  6.38272 255 255 255
-0.168612  0.473813   1.43125 255 255 255
0.00828793   0.584292     1.6559 255 255 255
0.0788539  0.665157   1.83918 255 255 255
-0.0673608   0.573507    1.47809 255 255 255
-0.19645 0.502915  1.34749 255 255 255
-0.173802  0.421563   1.49809 255 255 255
-0.124337 0.0726544   1.50557 255 255 255
-0.351546  0.362653   1.45909 255 255 255
-0.140713  0.539968   1.39823 255 255 255
-0.00414883    0.656259     1.55812 255 255 255
-0.954525  0.800712   7.34675 255 255 255
 -0.130244 -0.0144627    1.50507 255 255 255
0.122729 0.167639  1.55041 255 255 255
0.0634367  0.612311   1.82498 255 255 255
0.0702185  0.607179   1.80546 255 255 255
-0.153724   1.50367   5.95974 255 255 255
-0.188359  0.487998    1.3616 255 255 255
-0.134523  0.552717   1.37283 255 255 255
-0.268587  0.335686   1.49474 255 255 255
-0.0453063   0.472341    1.98265 255 255 255
-0.170482  0.515455    1.3767 255 255 255
-0.41824  1.29664   5.9585 255 255 255
0.0426142  0.561977   2.04441 255 255 255
0.00187588   0.472201    1.81194 255 255 255
-0.257062  0.413558   1.41248 255 255 255
0.00559998   0.638869    1.57193 255 255 255
-0.189853  0.525799   1.34399 255 255 255
-0.0985907   -0.21173    1.51087 255 255 255
 0.111308 0.0101253   1.55039 255 255 255
-0.00394908    0.661215     1.54718 255 255 255
-0.231972  0.433858   1.40432 255 255 255
-0.00252891     1.49613     5.97572 255 255 255
-0.00159039    0.519011     1.73988 255 255 255
-0.261865  0.446628   1.36316 255 255 255
-0.152604   0.52128   1.39468 255 255 255
0.136966 -0.25597  1.71817 255 255 255
-0.0301838  -0.201197    1.50163 255 255 255
-0.053115  0.611408   1.47433 255 255 255
0.0748462  0.589629   1.93265 255 255 255
0.199864 0.120725  1.58641 255 255 255
-0.155697  0.486493   1.40765 255 255 255
    0.11638 0.000789895     1.52974 255 255 255
0.0195551  0.566549   1.71447 255 255 255
-0.0672235 -0.0424997    1.49697 255 255 255
-0.484969   1.40766   6.33867 255 255 255
  0.137658 -0.0644377    1.55238 255 255 255
0.0100173  0.602008    1.6702 255 255 255
0.142129 0.213819  1.57836 255 255 255
0.302487 -1.52847  5.37799 255 255 255
-1.45618 -1.86167  3.08213 255 255 255
-0.165689  0.480092   1.39121 255 255 255
0.00458623   0.548329      1.695 255 255 255
-0.130188  0.497775   1.46478 255 255 255
0.0261349  0.525869   1.86826 255 255 255
-0.0833953   0.561537    1.49438 255 255 255
-0.271595  0.464017   1.33235 255 255 255
-1.43586 -1.69102  2.94402 255 255 255
-0.187146  0.505947   1.35681 255 255 255
-0.117233  0.492826   1.50448 255 255 255
-0.0853517   0.499463    1.56981 255 255 255
-0.0903528   0.500703    1.58004 255 255 255
  -0.168788 -0.00705501     1.53599 255 255 255
-0.0859188  -0.108078     1.4933 255 255 255
0.0368669  0.536695   1.79802 255 255 255
-0.0402067   0.606656    1.51801 255 255 255
-0.132494   1.32195   5.80901 255 255 255
-0.0469043   0.566474    1.55053 255 255 255
-0.191068  0.520413    1.3456 255 255 255
-0.0488341   0.615132    1.48143 255 255 255
-0.0534541   0.586102    1.51493 255 255 255
0.00482283   0.587395     1.6509 255 255 255
-0.067012  0.265555   1.54863 255 255 255
-0.0127331   0.634375    1.56143 255 255 255
-0.125445  0.434541   1.52809 255 255 255
-0.070821  0.571968   1.49034 255 255 255
-0.0465721   0.621611    1.48329 255 255 255
-0.194618  0.382767   1.49598 255 255 255
-1.46947 -1.93753   3.1422 255 255 255
-0.291939   0.42875   1.38871 255 255 255
-0.114021  0.529398    1.4681 255 255 255
 -0.134546 -0.0085584    1.48839 255 255 255
-0.156162 -0.196662   1.51258 255 255 255
-0.0960869   0.529914    1.50639 255 255 255
-0.0460332   0.570762    1.56335 255 255 255
-0.225563  0.295784   1.51262 255 255 255
-0.0548358   0.594505    1.50407 255 255 255
-0.0456364   0.605768    1.50875 255 255 255
0.196425 0.165225  1.62888 255 255 255
  0.116211 -0.0663262    1.52235 255 255 255
0.0313012  0.292208   1.56252 255 255 255
0.00433882   0.549366    1.72876 255 255 255
0.0329922   1.05948   5.90039 255 255 255
-0.0440881   0.602834    1.51521 255 255 255
-0.00389926    0.645705     1.56213 255 255 255
-0.196269   0.40172    1.4978 255 255 255
-1.45377 -1.78079  2.98674 255 255 255
0.0832468  0.624695   1.81818 255 255 255
-1.53877 -1.61559  3.12467 255 255 255
0.214323 0.686429  2.85961 255 255 255
-0.281712   0.43052   1.37832 255 255 255
0.0586898  0.576754   2.04633 255 255 255
-0.0944938   0.550325    1.47079 255 255 255
-0.0285388   0.603983    1.55234 255 255 255
-0.258351  0.467657   1.33985 255 255 255
-0.0637578   0.202906     1.4982 255 255 255
-1.02925 0.789956  7.38708 255 255 255
-0.0534208   0.479502     1.7005 255 255 255
-0.0639796 -0.0332021    1.49496 255 255 255
-0.0260963   0.503296    1.76762 255 255 255
0.00210414   0.161277     1.4881 255 255 255
 -0.115614 -0.0978308    1.49582 255 255 255
0.0376667  0.214544   1.52259 255 255 255
-0.322624  0.397548    1.3778 255 255 255
-0.258181  0.404588   1.43001 255 255 255
 0.105353 0.0910837   1.54238 255 255 255
-0.0502068   0.099675    1.49538 255 255 255
-0.232693   0.29241    1.4827 255 255 255
 -0.159748 -0.0485171    1.47765 255 255 255
 0.13785 0.157622  1.59495 255 255 255
-0.0859416   0.364337    1.59608 255 255 255
-0.219125 -0.348055   1.73895 255 255 255
-0.419266  0.445447   1.25239 255 255 255
-0.209499  0.497346   1.25338 255 255 255
-0.106844  0.468238   1.52521 255 255 255
-0.294527   0.48621   1.21742 255 255 255
-0.415363  0.406194   1.36439 255 255 255
-0.308986  0.453345   1.31154 255 255 255
-0.270631  0.421349    1.3973 255 255 255
-0.299427  0.352053   1.47323 255 255 255
-0.398209  0.395101   1.38984 255 255 255
-0.314505  0.452979   1.25825 255 255 255
-0.398332  0.367572    1.3877 255 255 255
-0.143802 0.0159442   1.47765 255 255 255
-0.415954  0.413885   1.30417 255 255 255
-0.0683063   0.310428    1.56403 255 255 255
-0.239838  0.485749   1.30563 255 255 255
-0.361312 0.0332789   1.78736 255 255 255
-0.209693    0.4688    1.2836 255 255 255
-0.457332  0.423539   1.29765 255 255 255
-0.454949  0.421712   1.35978 255 255 255
-0.449649  0.482036   1.20415 255 255 255
-0.258067  0.499294   1.24953 255 255 255
-0.352792  0.340554   1.48166 255 255 255
-0.47001 0.472358  1.20714 255 255 255
-0.430083  0.446718   1.23384 255 255 255
-0.318301  0.494139   1.21977 255 255 255
-0.428709  0.408008   1.33767 255 255 255
-0.412379  0.433769   1.44324 255 255 255
-0.262232  0.475841   1.30474 255 255 255
-0.386947  0.404135   1.30682 255 255 255
-0.423123  0.472289   1.21774 255 255 255
 -0.3828 0.350811  1.43554 255 255 255
-0.319325  0.480937   1.22821 255 255 255
-0.438431  0.477324   1.21272 255 255 255
-0.419099   0.39739    1.3755 255 255 255
-0.65321 0.210537  8.20378 255 255 255
-0.358475  0.441475   1.31156 255 255 255
-0.459169  0.406779   1.36987 255 255 255
-0.14344 0.469794  1.46692 255 255 255
-0.414352  0.345935   1.44344 255 255 255
-0.00993393  -0.0503429     1.48627 255 255 255
-0.398277  0.428717   1.28987 255 255 255
-0.223134  0.440555   1.32029 255 255 255
-0.287824 -0.315654   1.71606 255 255 255
-0.360502  0.469555   1.22301 255 255 255
-0.467613   0.45701   1.22825 255 255 255
-0.26074 0.463684  1.33116 255 255 255
  -0.18121 -0.0185543    1.47761 255 255 255
-0.44376  0.45001  1.23157 255 255 255
-0.422388  0.368562   1.47374 255 255 255
-0.397979  0.437547   1.22839 255 255 255
 -0.275552 -0.0573036     1.5936 255 255 255
-0.378054  0.362289   1.41346 255 255 255
-0.474954  0.457826   1.21484 255 255 255
-0.329819   0.47182   1.27104 255 255 255
-0.404247  0.466063   1.22322 255 255 255
-0.422654  0.435144   1.23425 255 255 255
-0.372979 -0.144386   1.80621 255 255 255
-0.360893   0.44532   1.22268 255 255 255
-0.237032  0.389783   1.45117 255 255 255
-0.377134  0.481138   1.21206 255 255 255
 -0.194997 -0.0855093    1.48418 255 255 255
-0.359642  0.443211   1.25635 255 255 255
-0.366431  0.488366   1.20884 255 255 255
-0.447056  0.436505    1.2532 255 255 255
0.00346393    0.57541    1.69023 255 255 255
-0.0621238  -0.177762    1.49099 255 255 255
-0.383256   0.44222   1.23671 255 255 255
-0.312709  0.291394   1.54035 255 255 255
-0.324618   0.34858   1.46971 255 255 255
-0.448696  0.370463   1.75668 255 255 255
-0.32526 0.351935  1.48132 255 255 255
-0.364339  0.467306   1.23982 255 255 255
-0.047123  0.506133   1.62165 255 255 255
-0.494553  0.451167   1.27471 255 255 255
  0.130081 -0.0102665    1.57637 255 255 255
-0.438852   0.41304   1.30624 255 255 255
-0.373182  0.364058   1.45781 255 255 255
-0.371118  0.381658   1.39999 255 255 255
0.039737 0.658221  1.59511 255 255 255
-0.342944  0.454322   1.22931 255 255 255
-0.168181 0.0158652   1.50237 255 255 255
-0.0281346   0.506473    1.80152 255 255 255
-0.457943  0.435387   1.26552 255 255 255
-0.384449  0.461031   1.22931 255 255 255
-0.0914599  -0.207267    1.49498 255 255 255
-0.42572 0.455069   1.2305 255 255 255
-0.445227  0.431154   1.28074 255 255 255
1.05274 -1.7402 5.56935 255 255 255
-0.409967  0.431288   1.28942 255 255 255
-0.160175  0.463658   1.43907 255 255 255
-0.362097  0.433277   1.29776 255 255 255
-0.437484  0.434209   1.28075 255 255 255
-0.41609 0.458297  1.22459 255 255 255
-0.42007 0.428001   1.2941 255 255 255
-0.45638 0.430261  1.28841 255 255 255
-0.0367069   0.519541    1.74578 255 255 255
-0.462456  0.433758   1.28372 255 255 255
0.0288181  0.594007   1.77843 255 255 255
-0.48316 0.441641  1.27042 255 255 255
-0.132868 -0.189841   1.50166 255 255 255
-0.363908  0.451278   1.25908 255 255 255
-0.286386  0.455679   1.32759 255 255 255
-0.432393  0.434446   1.23982 255 255 255
-0.393834  0.424589   1.30275 255 255 255
-0.34946 0.412605  1.31144 255 255 255
   0.16642 -0.0176992    1.63705 255 255 255
-0.108853  0.285388   1.52917 255 255 255
 0.050571 -0.154329   1.51363 255 255 255
-0.365513  0.474138   1.21623 255 255 255
-0.249679  0.375689   1.47241 255 255 255
-0.240442  0.335987   1.50841 255 255 255
-0.250328 -0.346949   1.69956 255 255 255
-0.384593  0.431849   1.25262 255 255 255
-0.355641   0.34722   1.45289 255 255 255
-0.38036 0.403288  1.31111 255 255 255
-0.390687  0.346352     1.491 255 255 255
-1.32929  1.06066  7.46403 255 255 255
-0.502968  0.447613   1.26469 255 255 255
-0.404049  0.395126   1.37844 255 255 255
-0.315566  0.151554   1.72886 255 255 255
-0.305519  0.388289    1.4045 255 255 255
 -0.138283 -0.0788943    1.46613 255 255 255
-1.43891  1.06371  7.48911 255 255 255
-0.44918 0.450798  1.22566 255 255 255
-0.198914 -0.138991   1.53061 255 255 255
-0.916434  0.455881   3.42198 255 255 255
-0.476589  0.441597   1.25415 255 255 255
-0.401094  0.413037    1.3083 255 255 255
-0.368662  0.424771   1.31076 255 255 255
-0.088258  0.475225    1.5791 255 255 255
-0.216718 -0.185837   1.52946 255 255 255
0.195708 0.267376  1.73456 255 255 255
-0.20783 0.511956  1.27129 255 255 255
  0.157243 -0.0337157    1.60859 255 255 255
-0.371158  0.476078   1.21729 255 255 255
-0.0550941  -0.164437    1.49226 255 255 255
-0.191015  0.527621   1.26469 255 255 255
-0.0645676    0.21026    1.50994 255 255 255
-0.398402   0.38515   1.39694 255 255 255
-0.0816601 -0.0503809    1.49727 255 255 255
 0.134644 -0.205874   1.61155 255 255 255
-0.268224  0.111809   1.60275 255 255 255
-0.0352082   0.099791    1.48114 255 255 255
-0.285169   0.39009   1.41132 255 255 255
-0.32549 0.441052  1.31665 255 255 255
0.0823262 -0.233662    1.5641 255 255 255
-0.324928  0.147597   1.75807 255 255 255
0.137553 0.278469  1.59982 255 255 255
-0.167293  0.466804   1.43085 255 255 255
  -0.298 0.412455  1.40505 255 255 255
-0.455688  0.442503   1.22493 255 255 255
-0.340039  0.406608   1.33302 255 255 255
-1.53264  1.31158  7.44968 255 255 255
-0.472346  0.445492   1.26238 255 255 255
-0.223116 -0.254319   1.56163 255 255 255
  0.197668 -0.0375166    1.66027 255 255 255
 0.122406 -0.212742   1.59628 255 255 255
-0.299261  0.430948   1.39132 255 255 255
-0.473871  0.449697   1.23795 255 255 255
-0.0791521   0.537352    1.45724 255 255 255
-0.157918  0.506241   1.39542 255 255 255
-0.451338  0.454605   1.22299 255 255 255
-0.164389 -0.273783   1.56447 255 255 255
-0.0369867   0.555824     1.5752 255 255 255
-0.129928 0.0834206   1.49827 255 255 255
-0.468615  0.437131   1.25568 255 255 255
-0.410333  0.455703    1.2354 255 255 255
  0.197082 -0.0479496    1.64614 255 255 255
-0.173458  0.388724   1.50812 255 255 255
-0.352554  0.435187   1.31591 255 255 255
-0.266551 -0.107124   1.54545 255 255 255
-0.172612  0.456467   1.46433 255 255 255
-0.347633  0.441871   1.28238 255 255 255
-0.0652052  0.0388545    1.48843 255 255 255
-0.00384022    0.193054     1.52371 255 255 255
-0.090574 -0.190825   1.49124 255 255 255
-0.177938  0.441214     1.458 255 255 255
-0.508183  0.446564   1.28161 255 255 255
0.0383218  0.238459   1.53233 255 255 255
  0.197181 -0.0456268    1.66852 255 255 255
-0.141887  0.466287   1.48618 255 255 255
 -0.150668 -0.0890664    1.48925 255 255 255
-0.460896  0.451376   1.22656 255 255 255
-1.61749  1.66517  7.30278 255 255 255
   0.102298 -0.00626995     1.55537 255 255 255
-0.254924 0.0205616   1.54952 255 255 255
-0.341121  0.439441   1.29958 255 255 255
-0.206005  0.492107    1.3135 255 255 255
-0.187987 -0.112119   1.50994 255 255 255
-0.0529627  -0.132952    1.48944 255 255 255
-0.194524  0.437059    1.4619 255 255 255
-0.044504  0.179114     1.503 255 255 255
-0.118865  0.438007   1.50443 255 255 255
-0.307095  0.339226    1.4742 255 255 255
-0.273323  0.404755   1.44585 255 255 255
-0.483835  0.435164   1.28966 255 255 255
-0.411422    0.3977    1.3748 255 255 255
-0.343729  0.442755   1.29231 255 255 255
-0.407005  0.389098   1.38057 255 255 255
-0.403933   0.38354   1.39119 255 255 255
0.170491 0.124208  1.62035 255 255 255
0.0673723   0.24857   1.54468 255 255 255
-0.0243955   0.353309    1.63092 255 255 255
-0.404623  0.455282   1.23187 255 255 255
-0.25391 0.417129  1.40441 255 255 255
 -0.208597 -0.0496513    1.47851 255 255 255
-0.352404   0.41932   1.30334 255 255 255
-0.000616735     0.217674      1.51342 255 255 255
-0.255816  0.432953   1.33795 255 255 255
-0.602665  0.015985   5.52797 255 255 255
-0.38104 0.421029  1.31562 255 255 255
   0.157308 -0.00587067     1.63563 255 255 255
-0.463296  0.476017   1.20831 255 255 255
-0.237529  0.416211   1.41145 255 255 255
-0.157153 -0.171469   1.51982 255 255 255
-0.162758  0.502946   1.39134 255 255 255
-0.223758  0.509509   1.26074 255 255 255
0.0187457   0.10495   1.49277 255 255 255
-0.255213 0.0552209    1.5539 255 255 255
0.0209985 -0.140812   1.49908 255 255 255
0.0102105  0.279941   1.55332 255 255 255
-0.353795   0.43404   1.28155 255 255 255
-0.0557814  0.0422659    1.48258 255 255 255
-0.261086  0.119172   1.57674 255 255 255
-0.400389  0.454347    1.2324 255 255 255
-0.391329  0.295283    1.6513 255 255 255
-0.26319 0.450938  1.33948 255 255 255
-0.193413 -0.240848    1.5383 255 255 255
-0.346768  0.418278   1.31877 255 255 255
 -0.19091 -0.142985   1.53586 255 255 255
-0.053169  0.491783   1.72291 255 255 255
-0.208433 -0.103412   1.51927 255 255 255
-0.099184   0.16947   1.50846 255 255 255
-0.0132718   0.280924    1.55141 255 255 255
-0.0288684    0.58792    1.54894 255 255 255
-0.436728  0.406112   1.38169 255 255 255
 -0.059312 -0.0380128    1.48961 255 255 255
-0.185805 -0.222043   1.51664 255 255 255
-0.317747  0.350965   1.48957 255 255 255
-0.376587  0.408564   1.31361 255 255 255
0.023405 0.265673  1.54489 255 255 255
0.0214565  0.190081   1.50331 255 255 255
 0.155685 -0.202201   1.65756 255 255 255
 0.135877 -0.132857   1.60617 255 255 255
0.0952923 0.0616568    1.5427 255 255 255
-0.180285   0.41244   1.48656 255 255 255
  0.149034 0.00708943    1.61089 255 255 255
-0.130668 0.0607542   1.45909 255 255 255
-0.190791   0.46991   1.40382 255 255 255
-0.0581375   0.528514     1.6611 255 255 255
0.210357 0.111115  1.56687 255 255 255
  0.180885 -0.0334717    1.70553 255 255 255
  0.170713 -0.0209176    1.73548 255 255 255
0.00304729    0.57136    1.68014 255 255 255
-0.191477  0.465393   1.43533 255 255 255
 0.13474 0.162522  1.54492 255 255 255
0.00757937   0.531713    1.74168 255 255 255
-0.0852624  -0.181845    1.50598 255 255 255
-0.00183052    0.583392      1.6438 255 255 255
0.169607 0.190515  1.59828 255 255 255
 -1.3384 -1.70235  3.10656 255 255 255
   0.1237 -0.275885   1.73841 255 255 255
0.0347263  0.545761   1.83304 255 255 255
-0.22806 0.435899  1.45713 255 255 255
-0.14512 0.474339  1.47642 255 255 255
0.0781641  0.278441   1.53316 255 255 255
0.0718939 -0.236368   1.57785 255 255 255
-0.0429891   0.304527    1.56994 255 255 255
0.190207 0.161227  1.61775 255 255 255
0.00775817   0.544782    1.75752 255 255 255
-0.184622  0.508309   1.36753 255 255 255
 0.14691 0.273178  1.59768 255 255 255
0.0429628  0.530571   1.82216 255 255 255
0.0265963  0.540391    1.8481 255 255 255
-0.148052  0.405689   1.51134 255 255 255
0.0158879 -0.267043   1.57952 255 255 255
-0.61539  1.43109  6.27457 255 255 255
0.0267867  0.523992   1.84471 255 255 255
-0.167565 0.0204601   1.48514 255 255 255
-0.155337  0.457485   1.49287 255 255 255
-0.348181  0.406816   1.37486 255 255 255
-0.0821513   0.467488    1.63215 255 255 255
-0.00204791    0.546811     1.72823 255 255 255
0.0463573   0.27309   1.55526 255 255 255
0.0469796  0.272487   1.55472 255 255 255
0.0852979 -0.309749   1.71099 255 255 255
0.0409834  -0.17837   1.52787 255 255 255
-0.301045  0.348921   1.47418 255 255 255
-0.0886392  -0.174398    1.50316 255 255 255
  0.110881 -0.0630416    1.52888 255 255 255
-0.0304624    0.46082      1.875 255 255 255
-0.0651434  -0.168363    1.48242 255 255 255
-0.231958  0.443846   1.45484 255 255 255
-0.0040488  -0.166129    1.49006 255 255 255
0.00647137   0.570342    1.72945 255 255 255
-0.0255006   0.503224    1.74253 255 255 255
   0.117591 -0.00217726     1.60267 255 255 255
-0.0891874   0.481742    1.57019 255 255 255
-0.188771  0.480644   1.37237 255 255 255
-0.272606   0.41064   1.45808 255 255 255
-0.104321   0.51858   1.50019 255 255 255
-0.156224 -0.179093   1.52102 255 255 255
0.123778 0.275054  1.57058 255 255 255
-0.0126035   0.513252    1.70408 255 255 255
-0.214607  0.442012    1.4443 255 255 255
-0.127612 -0.127874     1.506 255 255 255
0.0388181  0.261047   1.54211 255 255 255
-0.0862008    0.47562    1.57861 255 255 255
-0.0680887    0.22954    1.52548 255 255 255
-0.00388776    0.202088     1.50555 255 255 255
-0.0373994  -0.178132    1.50502 255 255 255
0.144363 0.120081  1.58717 255 255 255
-0.0785932   0.534431    1.53955 255 255 255
0.014065 0.156748  1.50294 255 255 255
0.136847 0.260627  1.56683 255 255 255
0.0196461  0.107152   1.53498 255 255 255
0.125988  0.24664  1.62199 255 255 255
  0.221535 -0.0122735    1.74142 255 255 255
0.136865 0.270172  1.68384 255 255 255
  0.176953 -0.0639317    1.64805 255 255 255
  -0.188031 -0.00417745     1.49204 255 255 255
-1.39636 -1.74928  3.26697 255 255 255
  0.165103 -0.0167749    1.69678 255 255 255
 0.092576 -0.054185   1.52183 255 255 255
 0.90126 -1.25719  5.27056 255 255 255
 -0.214443 -0.0958778    1.52366 255 255 255
0.106966   1.6661  4.82928 255 255 255
-0.0115428   0.495529    1.81166 255 255 255
0.168499 0.199851  1.63856 255 255 255
-0.0374117   0.454596    1.87644 255 255 255
-0.0809425  -0.236456    1.51852 255 255 255
-1.41657 -1.79762  3.06997 255 255 255
-0.0165627   0.464385    1.86102 255 255 255
-0.320013  0.284409   1.57502 255 255 255
 1.04676 -1.39026  5.36328 255 255 255
-0.33272 0.325908  1.49586 255 255 255
0.72747 1.66756 4.78551 255 255 255
0.0106931  0.567946   2.22584 255 255 255
0.0932223   1.72512   5.51315 255 255 255
0.161901 0.168789  1.59175 255 255 255
-0.347942  0.158582   1.42054 255 255 255
 0.0636949 -0.0201209    1.53378 255 255 255
-0.160044  0.467478   1.43339 255 255 255
0.138153 -0.20271  1.60859 255 255 255
 0.11008 0.630929   2.0149 255 255 255
-1.39887 -1.78223  3.09804 255 255 255
-0.375114  0.346222   1.46753 255 255 255
-0.231009  0.447692   1.41476 255 255 255
0.804068 -1.50564  5.32332 255 255 255
 -0.217157 -0.0831767    1.51456 255 255 255
0.0982293  0.631769   2.04591 255 255 255
0.0733179  0.605903   2.04951 255 255 255
0.481708 -1.35991  5.40071 255 255 255
0.0609322   1.41145   5.68887 255 255 255
0.0189552  0.577135   1.75981 255 255 255
0.722853  1.53393  6.00252 255 255 255
0.123902  1.19121  5.78635 255 255 255
-0.0962138   0.285806     1.5419 255 255 255
0.0334239  0.563472   1.86111 255 255 255
 -0.20385 -0.139608   1.51983 255 255 255
-0.224571   1.49007   5.88463 255 255 255
0.452318  1.54025  5.99332 255 255 255
-0.32523 0.340596   1.4844 255 255 255
0.827001   1.2739  5.83184 255 255 255
0.0974354 0.0670404   1.52963 255 255 255
0.00450492    1.52237    6.05459 255 255 255
0.126274  1.05093  5.90678 255 255 255
 -2.4327 -1.69515  6.33234 255 255 255
-0.0349701   0.515863    1.76293 255 255 255
0.205291 -1.51505  5.60245 255 255 255
0.0802767 -0.242967   1.54713 255 255 255
-0.147456  0.475335   1.48161 255 255 255
-0.0345974  -0.127196    1.48268 255 255 255
-0.0153493   0.554671    1.67921 255 255 255
0.511246 -1.81677  5.86797 255 255 255
-0.292532  0.352509   1.49272 255 255 255
  0.0934031 -0.00287021     1.53899 255 255 255
 -0.160296 -0.0178701    1.50894 255 255 255
-0.0425546   0.264833    1.54802 255 255 255
-0.031655 -0.198868   1.50874 255 255 255
-0.098852 -0.270624   1.52896 255 255 255
0.0454285   1.74402   5.52521 255 255 255
0.459095  1.70035  5.11062 255 255 255
-0.04967   0.4548  1.87264 255 255 255
-0.0366936   0.452868    1.85873 255 255 255
0.101774  1.02064  5.80717 255 255 255
-0.270078    0.4429   1.38358 255 255 255
-0.0402094  -0.084264    1.49043 255 255 255
-0.00856 0.527042  1.75976 255 255 255
-0.211833  0.440485   1.43029 255 255 255
-0.0991859  -0.128787     1.4887 255 255 255
-0.0469623   0.220526    1.51922 255 255 255
-0.183624 -0.187001   1.52026 255 255 255
 -0.206969 -0.0372295      1.481 255 255 255
-0.482985   1.38475   6.03558 255 255 255
-0.270867  0.405821   1.45539 255 255 255
-0.0548982   0.314051    1.57189 255 255 255
-2.53034 -1.64905  6.26971 255 255 255
-0.26595  0.40214  1.43629 255 255 255
-0.163684 -0.300532   1.56615 255 255 255
0.0125676 -0.231673   1.52361 255 255 255
0.0311971  0.539099    1.8781 255 255 255
0.089297 0.603968  1.92191 255 255 255
0.0545149  0.596991   1.89107 255 255 255
-0.137132 -0.105144   1.50729 255 255 255
0.00323416   0.564738    1.75877 255 255 255
 0.026181 -0.216451   1.54319 255 255 255
-0.345613  0.380239     1.408 255 255 255
0.893449 -1.43398  5.28341 255 255 255
-0.0813292   0.172839     1.5048 255 255 255
-0.322657   1.36966   5.92471 255 255 255
-0.0112779   0.503764    1.78759 255 255 255
0.00922522   0.223764     1.5244 255 255 255
0.028371 0.559381  2.02631 255 255 255
