ply
format ascii 1.0
element vertex 1136
property float x
property float y
property float z
property uchar red
property uchar green
property uchar blue
end_header
-0.258295  0.463389   1.32699 255 255 255
   -0.1832 -0.0098098    1.46234 255 255 255
-0.438589  0.451327   1.23304 255 255 255
-0.416338  0.368301   1.45792 255 255 255
-0.393765  0.439472   1.23136 255 255 255
  -0.27476 -0.0443094    1.55116 255 255 255
  -0.235322 -0.00362446     1.51465 255 255 255
-0.373489  0.362838   1.40294 255 255 255
-0.46949  0.45945  1.21781 255 255 255
0.990508  1.02107  3.86786 255 255 255
-0.326016  0.471835   1.26912 255 255 255
-0.399411  0.466854   1.22411 255 255 255
-0.417189  0.435542   1.23269 255 255 255
-0.369417 -0.125972   1.75381 255 255 255
-0.357263  0.447576   1.22692 255 255 255
-0.237696  0.398253    1.4709 255 255 255
-0.373205  0.483308   1.21681 255 255 255
 -0.197099 -0.0746184    1.46859 255 255 255
-0.35531 0.443391  1.25427 255 255 255
-0.362651  0.490709   1.21416 255 255 255
-0.44165 0.437543  1.25294 255 255 255
-0.00204966    0.570282     1.66554 255 255 255
-0.0671313  -0.166568    1.47487 255 255 255
-0.379224  0.444073   1.23947 255 255 255
-0.397322  0.375047   1.47945 255 255 255
-0.312898  0.297533   1.54321 255 255 255
-1.87191 -1.39876  6.54502 255 255 255
 -0.3244 0.354644    1.478 255 255 255
-0.439339  0.366687   1.70911 255 255 255
-0.322152  0.352498   1.46773 255 255 255
-0.358759  0.465827   1.23506 255 255 255
-0.0507304   0.502184    1.59983 255 255 255
-0.487724  0.451236   1.27165 255 255 255
   0.115059 -0.00149649     1.53202 255 255 255
-0.434874  0.415672   1.30962 255 255 255
-0.441133  0.420754   1.47301 255 255 255
-0.373396  0.372544   1.47917 255 255 255
-0.366605  0.381777      1.39 255 255 255
0.0345314  0.649369    1.5687 255 255 255
-0.33895 0.454798  1.22914 255 255 255
-0.170476 0.0236853    1.4895 255 255 255
-0.0342193   0.500597    1.76569 255 255 255
-0.452158  0.436116     1.264 255 255 255
-0.379782  0.461511   1.22916 255 255 255
-0.096647 -0.194073   1.47678 255 255 255
-0.420435  0.455723   1.23041 255 255 255
-0.438973   0.43097   1.27578 255 255 255
 1.00607 -1.70858   5.5073 255 255 255
-0.404447   0.43103   1.28432 255 255 255
-0.15752 0.478796  1.47604 255 255 255
-0.358257  0.434518   1.29739 255 255 255
-0.432067  0.434907   1.27881 255 255 255
-1.50177 0.783844  6.69629 255 255 255
-0.411023   0.45905   1.22506 255 255 255
-0.414314  0.427737   1.28858 255 255 255
1.32775 1.07591 3.80352 255 255 255
-0.450411  0.430671   1.28518 255 255 255
-0.0458996   0.504017     1.6829 255 255 255
-0.0493606    0.30753    1.53765 255 255 255
-0.456412  0.434209   1.28083 255 255 255
0.0196338  0.581457   1.73095 255 255 255
-0.476674  0.441976   1.26781 255 255 255
-0.136095 -0.177487   1.48221 255 255 255
-1.93998 -1.76007  6.40658 255 255 255
-0.359469  0.451341   1.25684 255 255 255
 -0.196137 -0.0747281    1.48378 255 255 255
-0.283484  0.455387   1.32315 255 255 255
-0.426733  0.434817   1.23792 255 255 255
-0.389318  0.424884   1.30021 255 255 255
 -0.179824 -0.0820215    1.48451 255 255 255
-0.345921  0.414513   1.32228 255 255 255
   0.152887 -0.00899309     1.60379 255 255 255
0.0433508 -0.143446    1.4989 255 255 255
-0.361753  0.476359   1.22088 255 255 255
-0.248306  0.375947   1.46069 255 255 255
-0.239449  0.336284   1.49145 255 255 255
-0.252837 -0.325882   1.66515 255 255 255
-0.379755  0.432031    1.2501 255 255 255
1.05592 1.14821 3.73064 255 255 255
-0.355751  0.353419   1.46598 255 255 255
 1.0719 1.26712 3.41443 255 255 255
1.19264 1.09091 3.98846 255 255 255
-0.37559  0.40342  1.30552 255 255 255
-0.385653  0.346659   1.47469 255 255 255
-0.49609 0.447894  1.26234 255 255 255
-0.398649  0.394914   1.36855 255 255 255
-0.313834  0.157545   1.69583 255 255 255
 -0.3028 0.389079  1.39798 255 255 255
 -0.141451 -0.0691288    1.45184 255 255 255
-1.16609 0.945495  6.24678 255 255 255
-0.44397 0.452202  1.22752 255 255 255
 -0.20162 -0.123716   1.49705 255 255 255
1.09475 1.05193 3.63774 255 255 255
-1.49764  1.31978  6.57613 255 255 255
-1.80297 0.968649  6.65171 255 255 255
-0.470475   0.44231   1.25306 255 255 255
-0.395787   0.41294   1.30233 255 255 255
-0.193068 -0.205391   1.50731 255 255 255
1.04901 1.17987 3.40293 255 255 255
-0.0911017   0.471316    1.55667 255 255 255
-0.219016 -0.173549   1.51437 255 255 255
0.184664 0.269287  1.71142 255 255 255
-0.205593  0.514273   1.27538 255 255 255
  0.141994 -0.0239752    1.56941 255 255 255
-0.367286  0.478159   1.22164 255 255 255
-0.0612073  -0.151663    1.47843 255 255 255
-0.188767  0.530031   1.26915 255 255 255
-0.0683036   0.214511    1.49657 255 255 255
1.14626 1.08977 3.66083 255 255 255
-0.393127  0.385103   1.38638 255 255 255
-0.0863978  -0.040935    1.48324 255 255 255
-0.408264  0.424169   1.49119 255 255 255
 0.115584 -0.186633   1.55652 255 255 255
-0.267834  0.118347   1.57665 255 255 255
-0.0446808   0.104977    1.47633 255 255 255
-0.362687   0.38079   1.46749 255 255 255
-0.174767 -0.123794   1.48296 255 255 255
-0.28276 0.390281  1.40262 255 255 255
-0.321136  0.437794   1.30573 255 255 255
-0.409833   0.34131   1.61962 255 255 255
0.0735407 -0.221028   1.54473 255 255 255
-0.322302  0.153317    1.7133 255 255 255
0.127535 0.278606  1.57347 255 255 255
-0.226033 -0.161872   1.50722 255 255 255
-0.164838  0.479963   1.46191 255 255 255
-0.294704   0.41009   1.38997 255 255 255
-0.179228  0.417813    1.5042 255 255 255
-0.450364  0.443925   1.22659 255 255 255
-0.336211  0.406753   1.32734 255 255 255
-1.41029  1.24275    6.758 255 255 255
-0.225853 -0.138768   1.50279 255 255 255
1.05389 1.31341  3.3302 255 255 255
-0.466229   0.44604   1.26077 255 255 255
-0.225253 -0.238037   1.53586 255 255 255
  0.179138 -0.0271301    1.61323 255 255 255
 0.108519 -0.197201   1.55902 255 255 255
-0.296508  0.431334    1.3861 255 255 255
-0.468035  0.450719   1.23844 255 255 255
-0.0802316   0.534817    1.44582 255 255 255
-0.157509  0.502817   1.38322 255 255 255
-0.446139  0.456076   1.22519 255 255 255
-0.169527 -0.250247   1.51179 255 255 255
-0.0406513   0.549883     1.5519 255 255 255
-0.132663 0.0900577   1.48784 255 255 255
-1.58849 0.105012  5.27317 255 255 255
 1.2905  1.0398 3.81394 255 255 255
-0.462669  0.437911   1.25459 255 255 255
-0.405779  0.457218    1.2375 255 255 255
1.13353 1.12218 3.66042 255 255 255
  0.178785 -0.0372847    1.60017 255 255 255
1.45107 1.46378 5.34978 255 255 255
-0.173917  0.387222   1.49041 255 255 255
1.04376 1.31485 3.35676 255 255 255
 -0.267969 -0.0964347    1.53193 255 255 255
-0.172462  0.455139   1.45326 255 255 255
-0.169269  0.465059   1.50129 255 255 255
-0.338578  0.435338   1.26065 255 255 255
-0.0695735  0.0458125    1.47292 255 255 255
-0.00983968     0.19614     1.50307 255 255 255
-0.0955015  -0.178485    1.47292 255 255 255
-0.176286  0.454521   1.48973 255 255 255
-0.500896   0.44644   1.27757 255 255 255
-0.203337 -0.147755   1.49247 255 255 255
-0.0347318   0.290407    1.53095 255 255 255
0.0323762  0.240006   1.51535 255 255 255
  0.181696 -0.0358204    1.63086 255 255 255
-0.141984  0.472064    1.4973 255 255 255
 -0.153751 -0.0786933    1.47257 255 255 255
-0.45548 0.452736  1.22829 255 255 255
-1.48759  1.56524  6.64266 255 255 255
 0.0922003 0.00167569    1.53013 255 255 255
-0.255375 0.0295813   1.53135 255 255 255
-0.261862 -0.137831   1.52454 255 255 255
-0.356104  0.326382   1.53413 255 255 255
-0.337139  0.439325   1.29549 255 255 255
-0.0534241  -0.119207     1.4667 255 255 255
-0.204136  0.493555    1.3147 255 255 255
-0.190419 -0.101067   1.49399 255 255 255
 -1.21135 0.0587763   5.16986 255 255 255
-0.0585727  -0.121883    1.47116 255 255 255
-0.427579  0.467196    1.4377 255 255 255
-0.194696  0.443735   1.47197 255 255 255
-0.0350402  -0.153065    1.47077 255 255 255
-0.120317  0.436291   1.48945 255 255 255
-0.304142  0.339635    1.4584 255 255 255
-0.250764 -0.111544   1.51729 255 255 255
1.21319 1.10732 3.80391 255 255 255
-0.271251  0.404848   1.43655 255 255 255
-0.477097  0.435211    1.2854 255 255 255
-0.405748  0.397419   1.36496 255 255 255
-1.02657 0.719288  4.89659 255 255 255
1.28729 1.14006 3.88791 255 255 255
-0.33971 0.442717  1.28872 255 255 255
-0.400436  0.386614   1.39233 255 255 255
0.149904 0.127677  1.55863 255 255 255
-0.231489  0.449064   1.45526 255 255 255
0.0606486  0.250246   1.52737 255 255 255
-1.23069 0.930896  4.78084 255 255 255
-0.0306962   0.351319    1.60061 255 255 255
-0.399614  0.455774   1.23141 255 255 255
-0.25208 0.417564  1.39852 255 255 255
  -0.21027 -0.0402035    1.46518 255 255 255
-0.350373   0.41997    1.3103 255 255 255
-0.00662381    0.220881     1.49409 255 255 255
-0.253621  0.432998   1.33358 255 255 255
-0.950048 0.0483794   5.25857 255 255 255
-0.586743  0.055498   5.19314 255 255 255
-0.376784  0.421987   1.31346 255 255 255
 0.141624 0.0031139    1.5942 255 255 255
-0.458182  0.477915   1.21271 255 255 255
-0.236026  0.416541   1.40501 255 255 255
-0.160594  -0.15878   1.50115 255 255 255
-0.162565  0.499888   1.37966 255 255 255
-0.221361  0.511985   1.26539 255 255 255
0.0129447  0.110102   1.47775 255 255 255
-0.255354 0.0630925   1.53271 255 255 255
0.0140546 -0.130292   1.48269 255 255 255
-0.972882 0.0460943   4.03687 255 255 255
0.00445256   0.280984    1.53378 255 255 255
-0.350177  0.435648   1.28265 255 255 255
-0.0602377   0.049182     1.4673 255 255 255
-0.260824  0.125395   1.55333 255 255 255
-0.395426  0.454793    1.2318 255 255 255
-0.385698  0.295809   1.61861 255 255 255
-0.196413 -0.225856   1.51703 255 255 255
-1.67856 0.137704  5.43379 255 255 255
-0.342869   0.41834   1.31363 255 255 255
1.05892 1.19046 3.38434 255 255 255
-0.193525 -0.130447   1.51547 255 255 255
0.189404 -1.19207  4.01229 255 255 255
 -1.05863 0.0472489   5.12508 255 255 255
-0.0590668    0.48417    1.68326 255 255 255
 -0.210361 -0.0920593    1.50051 255 255 255
 -0.1023 0.173796  1.49273 255 255 255
-0.0184197   0.282063    1.53232 255 255 255
-0.0314606    0.58342    1.53189 255 255 255
-0.430665  0.405875   1.37253 255 255 255
-0.0642997 -0.0291483    1.47237 255 255 255
-0.188682 -0.208322    1.4989 255 255 255
-0.315307  0.352478   1.47902 255 255 255
0.889506  -1.1173  4.06196 255 255 255
0.0165766  0.266582   1.52176 255 255 255
0.0150555  0.193113   1.48382 255 255 255
 0.141097 -0.187239   1.61982 255 255 255
0.973137  1.08705  3.84796 255 255 255
-0.0683222    0.26194    1.62316 255 255 255
0.117853 -0.12892  1.61546 255 255 255
0.0874863 0.0667711   1.52608 255 255 255
 -0.213274 -0.0381967    1.53779 255 255 255
-0.181041  0.410499   1.47052 255 255 255
-0.0615137   0.172358    1.44233 255 255 255
-0.0486022  0.0639334    1.44299 255 255 255
0.131369 0.265858  1.62402 255 255 255
 0.140073 0.0156984   1.59674 255 255 255
-0.145966 0.0657108   1.46409 255 255 255
0.161355 0.155753  1.63364 255 255 255
-0.196665  0.467957   1.39779 255 255 255
-0.04935 0.519542  1.61333 255 255 255
0.214665 0.105774  1.60694 255 255 255
0.0371505   0.55224   1.80919 255 255 255
  0.122154 -0.0211606    1.54386 255 255 255
  0.161659 -0.0515936    1.56448 255 255 255
 -0.254767 0.00491461    4.69982 255 255 255
-0.195568 -0.247586    1.5278 255 255 255
-0.0304921   0.549932     1.5652 255 255 255
-1.50912 -1.91672  3.08321 255 255 255
0.189712 0.115242  1.58777 255 255 255
-1.51186 -1.83009  3.01877 255 255 255
 0.164447 -0.027268   1.70327 255 255 255
-0.143966  -1.22373   5.42134 255 255 255
-0.0976106   0.467004    1.52746 255 255 255
  0.159814 -0.0104721    1.71849 255 255 255
-6.57352 0.541722  7.42653 255 255 255
-0.00176451    0.565037     1.65457 255 255 255
-0.172182 0.0797967   1.51587 255 255 255
-0.188425  0.461027   1.41658 255 255 255
0.125177 0.166243  1.53303 255 255 255
-0.0146533   0.343401    1.70274 255 255 255
-0.217977  0.717395   5.10261 255 255 255
  0.134857 0.00391376    1.78846 255 255 255
0.00476311   0.527542    1.71023 255 255 255
-0.0894672  -0.168774    1.48706 255 255 255
-0.00451635    0.576733     1.61623 255 255 255
0.157836 0.193987  1.58898 255 255 255
0.133606 0.287428  1.63919 255 255 255
-1.36176 -1.66859  3.06533 255 255 255
-1.37723 -1.66847  3.13678 255 255 255
 0.120742 -0.249701   1.69006 255 255 255
0.0244771  0.546239   1.81517 255 255 255
 -1.5048 -1.70325  3.01448 255 255 255
-0.22533 0.432302  1.43853 255 255 255
-0.0754996   0.504019    1.61864 255 255 255
-0.148205  0.471502   1.46376 255 255 255
-1.93497 -1.84282  2.78985 255 255 255
-0.351412  0.410169   1.35898 255 255 255
-0.660875   1.82178   5.77246 255 255 255
0.0620832  0.282708   1.54008 255 255 255
0.0369231  0.559216   1.81535 255 255 255
0.0674051 -0.219755   1.55033 255 255 255
-0.0476823   0.306221    1.55412 255 255 255
-1.02423  1.66965  6.02513 255 255 255
-0.27079  1.43188  5.79234 255 255 255
0.0599629  -0.22415   1.51609 255 255 255
-1.46737 -1.81157  3.04623 255 255 255
0.179017 0.165333  1.60502 255 255 255
-6.36794e-05     0.544674      1.74136 255 255 255
-0.134925 -0.133462   1.48943 255 255 255
-0.182352  0.502826   1.35292 255 255 255
-0.529474   1.20504   6.10636 255 255 255
0.141184  0.27587  1.57107 255 255 255
-0.230782   1.15463   5.87529 255 255 255
0.0254419  0.537327   1.82621 255 255 255
-0.160884  0.451503   1.41287 255 255 255
-1.61825  1.00934   6.6083 255 255 255
  0.159814 -0.0219139    1.65534 255 255 255
-0.380927    1.1398   6.03303 255 255 255
0.0156984  0.541789   1.83174 255 255 255
-0.155334  0.405584    1.5024 255 255 255
0.0119526 -0.249994   1.55393 255 255 255
-1.42811 -1.77398  3.02333 255 255 255
-1.51351 -1.86705   2.9613 255 255 255
0.128479 0.172734  1.53897 255 255 255
-0.66335  1.45598  6.17489 255 255 255
-0.0912295   0.513593    1.41357 255 255 255
-0.0279749   0.553975    1.59386 255 255 255
0.0176438   0.52367   1.82393 255 255 255
-1.02409   1.8064  5.98449 255 255 255
  0.152696 0.00466028    1.71049 255 255 255
-0.00545836    0.503738     1.69394 255 255 255
-0.0555631   0.544013    1.57565 255 255 255
-0.179547 0.0268379   1.48433 255 255 255
-0.155253  0.454262   1.47507 255 255 255
-0.344581  0.405367   1.36332 255 255 255
-0.0940349   0.535263    1.46189 255 255 255
-0.206771  0.434253   1.40533 255 255 255
-0.0779568   0.463008     1.5973 255 255 255
-0.248357   1.28385   5.84233 255 255 255
-0.00858886    0.545484     1.70791 255 255 255
-0.133671  0.154176   1.50687 255 255 255
-0.083132  0.487558   1.54613 255 255 255
-0.0808799   0.504133    1.46128 255 255 255
0.0620264  0.305443   1.60047 255 255 255
-0.172704  0.519818   1.39477 255 255 255
0.0403964  0.274182   1.53673 255 255 255
0.0412727   0.27379    1.5357 255 255 255
0.0926269 -0.278916   1.63786 255 255 255
-0.100297  0.498274   1.62417 255 255 255
 -0.20753 0.0813447   1.52725 255 255 255
0.0352059 -0.165415    1.5082 255 255 255
-0.300048  0.349173   1.45981 255 255 255
-0.090422 -0.159529   1.48142 255 255 255
  0.106797 -0.0502335    1.49863 255 255 255
-0.110311  0.507264   1.46477 255 255 255
-0.0390665   0.461645    1.85272 255 255 255
0.0673407 -0.299197   1.62909 255 255 255
-0.0562595   0.498227    1.58594 255 255 255
-0.54327   1.4244  6.12278 255 255 255
-0.0720307  -0.156902    1.47164 255 255 255
-0.228565  0.439772   1.43552 255 255 255
-0.342158 0.0720237   4.73095 255 255 255
-0.0109557  -0.155057    1.47677 255 255 255
0.0360441 -0.248447   1.53424 255 255 255
0.0819169 -0.264219   1.60468 255 255 255
0.00166334    0.56577    1.70242 255 255 255
-0.0339394   0.503386    1.72567 255 255 255
0.006721 0.583336  1.63524 255 255 255
-0.0292102    0.18134    1.48481 255 255 255
-0.0675832 0.00721393    1.48346 255 255 255
  0.104565 0.00452605    1.59639 255 255 255
0.00831077   0.239066    1.51589 255 255 255
-0.0912143   0.477598    1.54964 255 255 255
  0.112515 0.00231178    1.59211 255 255 255
-0.162965  0.461241   1.33117 255 255 255
-0.270899   0.40844   1.44177 255 255 255
-0.101468  0.511593   1.47418 255 255 255
0.210853 0.553924  2.23854 255 255 255
-0.154426 -0.163594   1.49644 255 255 255
-0.0666372   -0.16752    1.47471 255 255 255
-0.0648762   0.177399    1.50412 255 255 255
0.117347 0.277727  1.54807 255 255 255
-0.383585  0.121027   4.89326 255 255 255
-0.0958111   0.478829    1.60525 255 255 255
-0.393711   1.33527   6.06654 255 255 255
-0.621022   1.28937   5.94165 255 255 255
-0.0150169   0.509634    1.67517 255 255 255
-0.24639  1.25591  5.83512 255 255 255
-0.0604545   0.524713      1.486 255 255 255
-0.0748841   0.338766    1.57563 255 255 255
-0.212143  0.438174   1.42627 255 255 255
0.115159 0.174117  1.54148 255 255 255
-0.133025 -0.114825    1.4895 255 255 255
-0.243621  0.409475   1.45262 255 255 255
0.0323603  0.262565   1.52636 255 255 255
-0.0749348   0.232967     1.5257 255 255 255
-0.244908  0.389413   1.41869 255 255 255
-0.0889458   0.472328    1.55882 255 255 255
-0.0891462   0.529404    1.45885 255 255 255
-1.70114 -1.74034  3.18978 255 255 255
-0.0718886   0.231799    1.50959 255 255 255
-0.0107855    0.20435    1.49414 255 255 255
  0.119315 -0.0165305     1.5764 255 255 255
0.0473109  0.224243   1.50033 255 255 255
 -0.11463 -0.188405   1.49563 255 255 255
-0.0396093  -0.164047    1.48306 255 255 255
 -0.110281 -0.0605753    1.49477 255 255 255
0.00862848   0.178495    1.48941 255 255 255
-1.49782  -1.7893  2.89724 255 255 255
 -1.6627 -1.89993   2.8436 255 255 255
0.00365972   0.585331    1.65069 255 255 255
-0.238332  0.420072   1.39712 255 255 255
-1.40415 -1.82567  3.07794 255 255 255
 0.10117 0.213764  1.54395 255 255 255
0.151247 0.252739  1.57787 255 255 255
-0.195571  0.490295   1.40052 255 255 255
-0.101623  0.484179   1.70351 255 255 255
0.196678 0.149141  1.56806 255 255 255
0.153517 0.014001  1.58695 255 255 255
0.212873 0.100891  1.59034 255 255 255
-0.0190043   0.555167    1.89147 255 255 255
-0.176256  0.446273   1.54834 255 255 255
  0.17197 -0.028761   1.68605 255 255 255
-1.84124 -2.19372  2.88955 255 255 255
-0.0321466    0.51848    1.88082 255 255 255
-0.001421  0.340481   1.62746 255 255 255
-0.068544  0.432892   1.93809 255 255 255
-0.219691  0.407783   1.52515 255 255 255
-0.01946 0.499732  1.98116 255 255 255
-0.0291651   0.552677    1.83515 255 255 255
   0.13564 0.00408867    1.70644 255 255 255
-0.110408  0.521586   1.53386 255 255 255
0.0427463  0.257551    1.5349 255 255 255
0.134072 0.123638  1.56307 255 255 255
-0.17939 0.502009  1.41714 255 255 255
0.153836 0.273093  1.62114 255 255 255
0.153836 0.273093  1.62114 255 255 255
-0.109173  0.443875   1.90159 255 255 255
-0.118125  0.403222   1.88483 255 255 255
-0.120161   0.43465   1.86812 255 255 255
0.181936 0.118976  1.63272 255 255 255
-0.109886   0.31432   1.55794 255 255 255
0.150189 0.211889  1.60553 255 255 255
-1.72831 -1.78644  2.01169 255 255 255
-0.0137746   0.330955    1.64995 255 255 255
-0.344606  0.408745   1.41205 255 255 255
-2.11057 -1.87832  2.02556 255 255 255
-0.0920916   0.515051    1.66618 255 255 255
-0.189165  0.372606   1.89685 255 255 255
0.199438 0.097562  1.56357 255 255 255
-0.110561   0.49888   1.56865 255 255 255
0.00515696   0.505589    1.97999 255 255 255
-0.197386  0.489805   1.47628 255 255 255
-0.0689543   0.479846     1.7186 255 255 255
 0.0775238 -0.0523616    1.50231 255 255 255
-1.93151 -2.05404  2.16896 255 255 255
0.00700318    0.27845    1.54271 255 255 255
-0.0763399   0.523308    1.50312 255 255 255
 -1.9661 -2.02599  2.16248 255 255 255
-1.90542 -1.94029  2.68473 255 255 255
-0.133517  0.417024   1.95027 255 255 255
  0.158784 -0.0386855    1.56802 255 255 255
-0.230029  0.423107   1.45629 255 255 255
 0.0813671 -0.0359248    1.49959 255 255 255
-0.0656119   0.488318    1.68973 255 255 255
0.00778079   0.158814    1.48486 255 255 255
0.151352 0.273344   1.6151 255 255 255
-0.0911298    0.43111     1.9461 255 255 255
0.159633 0.260136   1.5944 255 255 255
0.168001 0.149895  1.56053 255 255 255
-0.107327  0.446064   1.44287 255 255 255
-1.49952 -1.90614  3.03567 255 255 255
-0.0853219    0.44761    1.92071 255 255 255
-1.40721 -1.68738  3.12153 255 255 255
-2.40136 -1.84064  2.89833 255 255 255
 0.12974 0.263007    1.546 255 255 255
-0.228022  0.399555   1.49688 255 255 255
-1.71644 -1.82777  2.00614 255 255 255
-1.96235 -1.95504  2.69873 255 255 255
 0.0972756 0.00302059    1.54101 255 255 255
   0.100571 -0.00778039     1.57658 255 255 255
-2.00949 -1.78935  1.98359 255 255 255
-1.99179 -1.70956  1.95912 255 255 255
-0.135529  0.429562   1.53246 255 255 255
-1.98345 -1.76904  2.72891 255 255 255
-0.180775  0.456499   1.53708 255 255 255
0.122029 0.222588  1.57249 255 255 255
0.0874984 0.0140346   1.54086 255 255 255
   0.110071 -0.00496712     1.71156 255 255 255
  0.120921 -0.0541173    1.50759 255 255 255
0.16845 0.16725 1.65718 255 255 255
0.0133036  0.112266   1.51879 255 255 255
0.116997 0.248622  1.60378 255 255 255
   0.208643 -0.00410963     1.72301 255 255 255
0.127048 0.272155   1.6648 255 255 255
  0.165729 -0.0550317    1.62979 255 255 255
-0.188319 0.0050313   1.47238 255 255 255
-1.42466 -1.71808  3.22998 255 255 255
   0.153627 -0.00851311     1.67868 255 255 255
0.0841662 -0.045861   1.50734 255 255 255
0.854583 -1.22712   5.2163 255 255 255
 -0.214615 -0.0846118    1.50297 255 255 255
0.0713124   1.68805   4.78852 255 255 255
-0.0174485   0.492088    1.78252 255 255 255
0.158455 0.202688  1.61609 255 255 255
-0.044615  0.453798   1.84989 255 255 255
-0.0870282  -0.223774    1.50482 255 255 255
-1.42423 -1.74909  3.00958 255 255 255
-0.0231627    0.46182    1.83063 255 255 255
-0.314501  0.285031   1.54856 255 255 255
  1.0035 -1.36529  5.32149 255 255 255
-0.329039  0.326378   1.47787 255 255 255
0.675772  1.62752   4.6007 255 255 255
-0.000551154     0.567522      2.19014 255 255 255
0.0468925   1.78071   5.54657 255 255 255
-2.50742 -1.69897  6.09129 255 255 255
0.152248  0.17227  1.57426 255 255 255
-0.342864  0.162833   1.40297 255 255 255
  0.0601221 -0.00854119     1.50823 255 255 255
-0.163857  0.464991   1.42404 255 255 255
 0.129062 -0.190496   1.58752 255 255 255
0.099204 0.628553  1.98686 255 255 255
-1.42877 -1.75731  3.06911 255 255 255
-0.36888 0.345869  1.44781 255 255 255
-0.229213  0.445129   1.40082 255 255 255
0.759446 -1.48005  5.28328 255 255 255
-0.13077  1.30433    5.816 255 255 255
 -0.216918 -0.0722484    1.49371 255 255 255
0.0864524   0.63262    2.0261 255 255 255
0.0622985  0.604937   2.02262 255 255 255
0.429832 -1.31633  5.31306 255 255 255
0.00579937    1.48374    5.79576 255 255 255
0.012704 0.572978  1.73531 255 255 255
0.667155  1.52775  5.84205 255 255 255
0.0670057   1.26391   5.92281 255 255 255
-0.0993421   0.286995    1.52492 255 255 255
0.0245049  0.562726   1.84144 255 255 255
-0.0523752   0.896441    5.95464 255 255 255
-0.210044 -0.128371    1.5104 255 255 255
-0.284717   1.55253   5.94506 255 255 255
0.399527  1.52099  5.78182 255 255 255
-0.993174   1.38729   6.12482 255 255 255
-0.320423  0.340193   1.46447 255 255 255
0.773599  1.27637  5.68876 255 255 255
0.0896605 0.0719019    1.5103 255 255 255
-0.0413407    1.55816    6.02309 255 255 255
-2.37316 -1.56757  6.01974 255 255 255
-0.0405287   0.512797    1.73833 255 255 255
0.146464 -1.54036  5.76132 255 255 255
0.0709523 -0.230608   1.53321 255 255 255
-0.147381  0.471371   1.46378 255 255 255
-0.0406656  -0.116936     1.4694 255 255 255
-0.0211877   0.552207    1.66152 255 255 255
 0.45352 -1.74504   5.7125 255 255 255
-0.288414  0.351414   1.47206 255 255 255
 0.0849807 0.00446729    1.52393 255 255 255
  -0.161805 -0.00907929     1.48998 255 255 255
-0.046084   0.26566   1.52537 255 255 255
-0.0388251  -0.187364    1.49628 255 255 255
-0.104495 -0.257072   1.51368 255 255 255
-0.00235662     1.80279     5.56858 255 255 255
0.420447  1.69785  5.01254 255 255 255
-0.0564596   0.453924    1.84517 255 255 255
-0.0427452    0.45061    1.82883 255 255 255
0.0443851   1.08093   5.92884 255 255 255
-0.26448 0.438257  1.36524 255 255 255
-0.0458416 -0.0739381    1.47699 255 255 255
-0.0155967   0.525611    1.74058 255 255 255
-0.208946  0.436569   1.41201 255 255 255
-0.104012 -0.118136   1.47486 255 255 255
-0.0515871    0.22349    1.50375 255 255 255
-0.185523  -0.17385   1.50116 255 255 255
 -0.208557 -0.0280667    1.46618 255 255 255
-0.540985   1.43066   6.03428 255 255 255
-0.266011  0.402581   1.43453 255 255 255
-0.0589337   0.314227    1.55345 255 255 255
-2.46608 -1.52394  5.96111 255 255 255
-0.309096   1.59885   5.76743 255 255 255
-0.260979  0.398823   1.41594 255 255 255
-0.168086 -0.285589   1.54851 255 255 255
0.00440995  -0.219471    1.51077 255 255 255
0.0172453 -0.226918   1.62587 255 255 255
0.0227506  0.536873   1.85179 255 255 255
0.0789176  0.603868   1.90321 255 255 255
-0.27995 0.387857   1.4516 255 255 255
0.0469403  0.593417   1.86428 255 255 255
-1.45124 -1.82081  3.10008 255 255 255
 -0.142081 -0.0948348    1.49413 255 255 255
-0.510629   1.50582   5.91379 255 255 255
-1.40312 -1.72876  3.00437 255 255 255
-0.00241539    0.560345     1.73333 255 255 255
0.0185122 -0.204189   1.52691 255 255 255
-0.340958  0.379141   1.39288 255 255 255
0.852356  -1.4156  5.26254 255 255 255
-0.0848841   0.176368    1.48903 255 255 255
-0.382603   1.42319    5.9582 255 255 255
-0.0179479   0.501701    1.76343 255 255 255
0.00374625   0.225967    1.50794 255 255 255
0.262484 0.933294  5.82285 255 255 255
0.0182946  0.558373   1.99773 255 255 255
-0.112131  0.258388   1.51632 255 255 255
-0.920215   1.42463   6.03039 255 255 255
0.00551129   -0.12402    1.48809 255 255 255
  -2.454 -1.44543  5.96726 255 255 255
-0.0492509  -0.156831    1.48364 255 255 255
-0.00379402    0.550519     1.72548 255 255 255
-0.343367  0.399743   1.37038 255 255 255
-0.00651892   -0.149256     1.48163 255 255 255
-0.0659456 -0.0524858    1.47779 255 255 255
 -0.172272 -0.0602956    1.46717 255 255 255
0.0962567  0.644401    1.9288 255 255 255
0.0583417 -0.295169   1.62667 255 255 255
-0.0602032  -0.150628    1.47674 255 255 255
-0.299672   0.40322   1.38784 255 255 255
-0.357063   1.44852    5.8185 255 255 255
-0.241236   0.41496   1.43784 255 255 255
-0.283347  0.393687   1.39953 255 255 255
0.0522062  -0.29529   1.60975 255 255 255
0.0520618  0.603444   2.04095 255 255 255
   0.18294 -0.0451954    1.66875 255 255 255
-0.0815216   0.287248    1.53735 255 255 255
0.00141747   0.565425     1.7024 255 255 255
0.0318662 -0.254107   1.55247 255 255 255
-0.337439  0.344279   1.45363 255 255 255
-0.16111 0.410191  1.49257 255 255 255
-2.05095  -1.8506  2.57226 255 255 255
-2.41065 -1.88763  2.82892 255 255 255
-2.43274 -1.99464  2.86727 255 255 255
 0.142248 -0.051538   1.55176 255 255 255
-2.00215 -1.90385  1.88933 255 255 255
-1.98478 -2.28546  2.72752 255 255 255
  0.190158 0.00475262    1.71819 255 255 255
-0.117783 -0.306031   1.90636 255 255 255
-0.187711  0.411688   1.48146 255 255 255
0.0396006  0.544847   1.84225 255 255 255
-0.141284  0.497288   1.42265 255 255 255
-0.185926  -0.39864   1.78717 255 255 255
-0.183143 -0.241236   1.52733 255 255 255
 0.108456 -0.224756   1.59781 255 255 255
0.424906 0.400328  2.45555 255 255 255
-0.024887  0.348955   1.65996 255 255 255
-0.359622  0.289493   1.52385 255 255 255
0.742547 -1.49062  5.45276 255 255 255
-0.376889  0.350106   1.41856 255 255 255
-0.225599 0.0464747   1.51477 255 255 255
-0.266174  0.433966   1.38445 255 255 255
-0.248627  -0.31559   1.61538 255 255 255
-0.328855  0.446534   1.22422 255 255 255
-0.0193348   0.601362    1.54268 255 255 255
-0.335267  0.446233   1.25417 255 255 255
-0.371893  0.328395   1.44046 255 255 255
-0.365923  0.343926   1.45193 255 255 255
-0.00816053    0.553358      1.6959 255 255 255
-0.258295  0.463389   1.32699 255 255 255
-0.331335  0.443185   1.26861 255 255 255
1.55186 1.40786 4.95128 255 255 255
-0.375812  0.440745   1.24894 255 255 255
-0.0190026   0.595403    1.58246 255 255 255
-0.390382  0.404014    1.3534 255 255 255
-0.281846  0.428145   1.32512 255 255 255
-0.407022  0.336504   1.51696 255 255 255
0.915285  1.77176  4.55194 255 255 255
   -0.2585 -0.0366513    1.51504 255 255 255
-0.456177 0.0826627   2.18453 255 255 255
-0.0697234   0.473907    1.65453 255 255 255
0.108097 -0.19828  1.55799 255 255 255
-0.341159  0.408112   1.34875 255 255 255
-0.0389459   0.567894    1.57122 255 255 255
-0.383241  0.432582   1.23966 255 255 255
-0.0273002   0.574415    1.59071 255 255 255
-0.323893  0.445354   1.30857 255 255 255
-0.365797  0.359896   1.42867 255 255 255
  0.158581 -0.0180102    1.60182 255 255 255
-0.419538  0.432545   1.27777 255 255 255
-0.240704 -0.184414   1.51897 255 255 255
0.744928   -1.435  5.32304 255 255 255
 -0.343352 -0.0512619    1.65531 255 255 255
-0.241218 -0.021114   1.52443 255 255 255
-0.00602374    0.579451      1.6592 255 255 255
0.0168729  0.541854   1.76114 255 255 255
-0.0664448   0.453801    1.66505 255 255 255
-0.00194239    0.514312     1.77259 255 255 255
-0.149186  0.475563   1.43402 255 255 255
-0.353146  0.405507   1.35962 255 255 255
1.40878  1.4682 5.00113 255 255 255
0.138003 0.221273  1.59786 255 255 255
-0.151465  0.508691   1.39002 255 255 255
0.0809669   0.29718   1.59246 255 255 255
0.737736 -1.35865  5.37601 255 255 255
-0.133361  0.535697   1.39247 255 255 255
-0.158821  0.401554   1.48129 255 255 255
-0.427935  0.428995    1.2607 255 255 255
-0.0877618  -0.223638    1.48243 255 255 255
0.000527935    0.596335     1.67475 255 255 255
-0.383487  0.401027   1.35966 255 255 255
 1.36311 -1.29547  4.98125 255 255 255
-0.12913 0.523337  1.39704 255 255 255
  0.063348 -0.0348566    1.48333 255 255 255
  0.129871 -0.0542584    1.53342 255 255 255
-0.0306251   0.582995    1.53191 255 255 255
0.0748825  0.306173   1.63521 255 255 255
-0.360347  0.399526   1.34708 255 255 255
 -0.132921 -0.0983352    1.47988 255 255 255
-0.426978  0.428179   1.27836 255 255 255
-0.393473  0.427607   1.25557 255 255 255
 -0.212414 -0.0766887    1.49257 255 255 255
 -0.192153 -0.0898273    1.48689 255 255 255
-0.332558  0.409183   1.31315 255 255 255
-0.26859 0.428668  1.34071 255 255 255
-0.390295  0.448802   1.23094 255 255 255
0.929781  0.99682  3.87689 255 255 255
-0.42207 0.433089  1.24039 255 255 255
-0.0997302  -0.220808    1.48133 255 255 255
-0.208149  0.448582   1.43737 255 255 255
-0.393069  0.338816    1.4508 255 255 255
-0.373558  0.341646   1.45862 255 255 255
0.140888 0.232946  1.60958 255 255 255
-0.298549 -0.267969   1.65841 255 255 255
0.93216 1.82476  4.6649 255 255 255
-0.257138 -0.297301   1.60469 255 255 255
-2.14864 -1.56958   5.8781 255 255 255
-0.313395   0.45581   1.26066 255 255 255
-0.0584918  -0.121817    1.47116 255 255 255
-0.296941  0.387127   1.42862 255 255 255
-0.367573  0.400053   1.35736 255 255 255
  -0.26753 0.00748717    1.54409 255 255 255
-0.200642  0.386139     1.467 255 255 255
-0.376407  0.425857   1.25147 255 255 255
-0.0823271  -0.114751    1.47734 255 255 255
-0.384425  0.465775   1.22863 255 255 255
-1.34661  1.00097  6.26373 255 255 255
-0.328917  0.319317   1.49095 255 255 255
-0.424684   0.42784   1.23503 255 255 255
-0.219136 -0.205489   1.52626 255 255 255
-0.233668  0.446711    1.3814 255 255 255
-0.243261 -0.108367    1.5104 255 255 255
-0.112305 -0.210732   1.48702 255 255 255
-0.183357  0.505087   1.35501 255 255 255
-0.142654 -0.116471   1.47998 255 255 255
-0.106507  0.492521    1.5067 255 255 255
-0.256034 -0.106285   1.53597 255 255 255
-0.353606  0.397947   1.35909 255 255 255
-0.036381 -0.144557   1.47314 255 255 255
 -0.267777 -0.0389045    1.53431 255 255 255
-0.443408  0.397558   1.36444 255 255 255
-0.226725  0.429724   1.44156 255 255 255
0.927781  1.48953  5.61655 255 255 255
-0.336645  0.429153   1.30266 255 255 255
-0.427825  0.417768    1.2831 255 255 255
-0.318661  0.441146   1.32215 255 255 255
-0.00393629    0.196324     1.49088 255 255 255
 -0.225042 0.00481515    1.48918 255 255 255
-0.24515  0.46683  1.32791 255 255 255
-0.239437  0.444106   1.38837 255 255 255
-0.0922896  -0.113927    1.47506 255 255 255
0.0661772 -0.106085   1.49809 255 255 255
0.296144 -1.54045  5.54106 255 255 255
-0.0191505 -0.0365488     1.4768 255 255 255
-0.283646  0.416293    1.3885 255 255 255
-0.0742546   0.520873    1.54076 255 255 255
0.155738 0.185339  1.59124 255 255 255
-1.96343 -1.59176  6.35968 255 255 255
-0.0227561   -0.13657    1.47548 255 255 255
-0.414352  0.449434   1.22809 255 255 255
-0.0300178   0.214065    1.49916 255 255 255
-0.0295999   0.216204    1.50116 255 255 255
-0.273704  0.396188   1.40199 255 255 255
-0.0520629   0.513495    1.63394 255 255 255
-0.0993351 -0.0290797    1.48041 255 255 255
 1.0795 1.39987 5.64111 255 255 255
-0.299172  0.371383   1.44448 255 255 255
-0.196808 -0.226159   1.51687 255 255 255
   0.117465 -0.00993535     1.54855 255 255 255
0.971937 -1.38661  5.29689 255 255 255
0.784067  1.62512  5.37693 255 255 255
0.0242046  0.183634   1.49823 255 255 255
0.148499 -1.60085  5.69811 255 255 255
-0.357873  0.417631   1.30727 255 255 255
-0.190315 -0.059845   1.45803 255 255 255
0.132488 0.250874  1.58085 255 255 255
-0.28628 0.432763  1.36948 255 255 255
-0.36614 0.432347  1.29215 255 255 255
0.801724  1.38111  5.64009 255 255 255
0.0390609  0.156659   1.48944 255 255 255
-0.223187 -0.135935    1.4913 255 255 255
-0.0290435   0.155275    1.48599 255 255 255
-0.0292107   0.156703    1.47586 255 255 255
-0.201719  -0.13923   1.48582 255 255 255
0.315541   1.4764  5.79329 255 255 255
0.961852  1.35569  5.72792 255 255 255
-0.0978688 -0.0521567    1.47631 255 255 255
-0.0104744   0.204905    1.49419 255 255 255
-0.0420859  0.0299943    1.46556 255 255 255
-0.0420691   0.030208    1.46225 255 255 255
-0.363173  0.331979   1.47477 255 255 255
-0.413349   0.43288   1.27762 255 255 255
-0.191232 -0.213504   1.49678 255 255 255
-0.326032  0.326931    1.4766 255 255 255
-0.232097  0.421574   1.43903 255 255 255
-0.117322  0.495563   1.49477 255 255 255
-0.127321  0.418608   1.71427 255 255 255
-0.0303503   0.529655    1.66753 255 255 255
-2.02284  -1.8259  2.61804 255 255 255
 0.164191 0.0725357   1.56552 255 255 255
-0.305274  0.419361   1.39371 255 255 255
  0.136941 -0.0594039    1.78288 255 255 255
-1.93573 -1.99893  2.26732 255 255 255
 0.124661 -0.192912   1.59122 255 255 255
-0.32332 0.446813  1.35055 255 255 255
-0.293451   0.46859   1.27275 255 255 255
0.135613 0.275881  1.57649 255 255 255
0.186919 0.158527  1.59573 255 255 255
-1.93547 -2.37778  2.91377 255 255 255
0.165975 0.106104  1.57735 255 255 255
-2.04658 -2.31182  2.91748 255 255 255
  0.154958 0.00835601    1.69478 255 255 255
-0.154739  0.472131   1.38475 255 255 255
-0.105566 -0.263595   1.54018 255 255 255
-0.211417  0.489455   1.49932 255 255 255
-0.0389746   0.532909    1.69787 255 255 255
-1.51168e-05      0.21412      1.50739 255 255 255
-1.96943 -2.25882  2.62184 255 255 255
0.202251 0.114986  1.62325 255 255 255
-0.330203  0.442142   1.28166 255 255 255
-0.183559  0.472454   1.45037 255 255 255
-0.353732  0.429732   1.27267 255 255 255
-0.341891  0.390143   1.44488 255 255 255
-0.210048  0.485657   1.47348 255 255 255
0.151948 0.212692  1.59229 255 255 255
-0.345742   0.41399    1.3493 255 255 255
-0.108058  0.461706   1.83486 255 255 255
-0.269014  0.443197    1.4323 255 255 255
-0.389797  0.380682   1.36888 255 255 255
-0.291248  0.394977   1.41897 255 255 255
-2.45235 -2.00821  2.88016 255 255 255
0.00482241   0.177704    1.49912 255 255 255
-0.0240989   0.334211    1.60995 255 255 255
-0.0449435   0.279177    1.54499 255 255 255
-1.88875  -1.9202  2.22122 255 255 255
-0.0537202   0.482179    2.02944 255 255 255
-0.355143  0.433094   1.25907 255 255 255
-1.65009 -1.71518  3.05455 255 255 255
-0.145443  0.399639   1.90783 255 255 255
-0.0341645 -0.0822657    1.49679 255 255 255
 0.15554 0.274742  1.61926 255 255 255
0.0431127  0.259099   1.52784 255 255 255
  0.070674 -0.0281078     1.5061 255 255 255
-1.71045 -1.78867  3.07215 255 255 255
 -2.0013 -1.81314  2.71604 255 255 255
 0.162542 -0.175353   1.59081 255 255 255
0.0434498  0.213638   1.50551 255 255 255
-0.0558029   0.541486    1.50161 255 255 255
  0.127304 -0.0147192    1.56363 255 255 255
-0.0907569   0.484604    1.62348 255 255 255
-0.177409  0.430635   1.53178 255 255 255
-1.40676 -1.65496  3.09257 255 255 255
 0.0612338 -0.0618455    1.50545 255 255 255
-1.85919 -1.81766  1.86939 255 255 255
 0.126752 -0.176915   1.56906 255 255 255
-2.27995 -1.98546  2.75941 255 255 255
0.129259 0.273372  1.57035 255 255 255
-0.20509 0.436582  1.42053 255 255 255
0.0875183  0.243608   1.53686 255 255 255
-0.139738  0.504732   1.59247 255 255 255
-1.94117 -1.88407  2.65284 255 255 255
-0.251778  -0.61329    1.5288 255 255 255
-0.102337  0.518189   1.60062 255 255 255
-0.0904814   0.505094     1.6309 255 255 255
-0.115267  0.479902     1.569 255 255 255
-0.13142 0.508516  1.58756 255 255 255
 0.130244 -0.040723    1.5176 255 255 255
0.131948 0.147175  1.54511 255 255 255
 0.109719 -0.224352   1.77378 255 255 255
-0.121337  0.428018   1.91426 255 255 255
 0.142995 0.0122505    1.6734 255 255 255
-0.294065  0.351054   1.51535 255 255 255
0.000440512     0.24014     1.48027 255 255 255
-0.196665  0.155531    1.5251 255 255 255
  0.157714 -0.0618523    1.67151 255 255 255
   0.15644 -0.0626281    1.67169 255 255 255
0.000527138    0.351035     1.67491 255 255 255
 0.13821 0.146137  1.54702 255 255 255
-0.281889  0.401112    1.4354 255 255 255
-0.0742773   0.459226    1.76049 255 255 255
-0.189811  0.428468   1.45486 255 255 255
0.0763841 -0.295465   1.63323 255 255 255
0.125468 0.161487  1.54837 255 255 255
0.189513 0.115251  1.58956 255 255 255
0.0144507  0.506788     1.801 255 255 255
0.00437123   0.512863    1.82687 255 255 255
 -0.155537 -0.0649945    1.45756 255 255 255
-5.52279 -2.13857   7.9284 255 255 255
0.0641112  0.593652   1.95386 255 255 255
-0.331962  0.384187   1.38467 255 255 255
-0.171551  0.480051   1.40632 255 255 255
-0.105359  0.428656   1.85759 255 255 255
  -0.17775 -0.0852961    1.48455 255 255 255
 0.02717 0.506994  1.90108 255 255 255
-0.197224 0.0405264   1.47283 255 255 255
-0.357457  0.377931   1.36783 255 255 255
 0.209115 0.0699109   1.60781 255 255 255
-0.207884  0.459015   1.37324 255 255 255
-0.152804  0.496885   1.43085 255 255 255
-0.0393066   0.449794    1.82994 255 255 255
 0.15947 0.113007  1.56656 255 255 255
-0.320741  0.387712   1.44824 255 255 255
-0.220847 -0.132161   1.53744 255 255 255
-0.0479195  -0.174465    1.49527 255 255 255
-0.271542  0.438314   1.36951 255 255 255
-5.01912 -1.65416  7.39547 255 255 255
 0.0982773 0.00415556    1.56454 255 255 255
 -0.144829 -0.0130043     1.4914 255 255 255
-1.51344 -1.82968  2.94227 255 255 255
-0.324934  0.412569    1.3306 255 255 255
   0.119293 -0.00508759     1.56531 255 255 255
0.129812 0.107094  1.55584 255 255 255
-0.321193  0.323203   1.48562 255 255 255
 0.16613 0.108329  1.58467 255 255 255
-0.336872  0.441395   1.31233 255 255 255
0.0898088  0.071138   1.51048 255 255 255
0.147005 0.173341  1.55323 255 255 255
-0.319763  0.422015   1.36598 255 255 255
-0.133779   1.21727   5.96803 255 255 255
  -0.16889 0.00830271    1.50184 255 255 255
-0.0939628   0.288746    1.50249 255 255 255
0.0114121  0.519006   1.86796 255 255 255
0.248979 0.420748  1.99515 255 255 255
-0.350313  0.305065   1.58024 255 255 255
0.00987827   0.564539    1.74725 255 255 255
-4.75285  -1.6195  7.33311 255 255 255
-0.383133   1.32242   5.88083 255 255 255
  0.173932 -0.0583941    1.67659 255 255 255
-0.313886  0.426709   1.40462 255 255 255
 0.120242 -0.263826   1.67062 255 255 255
 0.141179 -0.200417   1.71905 255 255 255
-0.357604  0.375329   1.38541 255 255 255
-0.0893792   0.531089    1.47968 255 255 255
-0.099269  0.537188   1.49748 255 255 255
-0.53828 0.393292  1.52178 255 255 255
-0.207689  0.462962   1.42211 255 255 255
0.0301438  0.567222   2.00184 255 255 255
-0.0779681    0.21827    1.50052 255 255 255
-1.45485 -1.72497  2.91918 255 255 255
-0.375854  0.294414   1.56526 255 255 255
 0.156023 -0.114173     1.735 255 255 255
-0.184452 -0.239744   1.53101 255 255 255
-0.0125164   0.148336    1.48126 255 255 255
 -0.107556 -0.0908304     1.4782 255 255 255
0.112375 0.162558  1.51685 255 255 255
-0.00959987    0.489052     1.84194 255 255 255
-0.150558 -0.183224   1.49713 255 255 255
 -5.0708 -1.74071  7.54683 255 255 255
-0.190962   1.46706    5.7828 255 255 255
0.159058 0.140076  1.56576 255 255 255
0.0165951  0.538928   1.82633 255 255 255
-0.0789414    0.53217    1.53165 255 255 255
-0.0444732   0.497779    1.75403 255 255 255
-0.0250074   0.487225     1.7964 255 255 255
0.00879914   0.549018    1.67665 255 255 255
-0.057237 -0.214425   1.51445 255 255 255
0.0123909  0.521777   1.81721 255 255 255
-0.231248  0.442377   1.40014 255 255 255
0.185851  0.16847  1.56498 255 255 255
-0.118522 -0.230544   1.52585 255 255 255
0.184138 0.136116  1.61902 255 255 255
0.128793 0.271649  1.53692 255 255 255
-0.350249  0.302367   1.56392 255 255 255
-0.090514 -0.248088   1.51969 255 255 255
 -1.5862 -1.93411  3.01635 255 255 255
-0.300826  0.388893   1.39346 255 255 255
0.140657 0.256527  1.54347 255 255 255
-0.199898 -0.108874   1.50425 255 255 255
-0.0213876   0.240592    1.50082 255 255 255
-0.0284709    0.24273    1.51415 255 255 255
-0.344008   1.27485   5.99095 255 255 255
-0.0709748   0.529706    1.55281 255 255 255
-0.0769666   0.528692    1.50406 255 255 255
-0.0703329  -0.188459    1.48463 255 255 255
  0.0984145 -0.00600788     1.52248 255 255 255
 -0.24167 -0.294383   1.59867 255 255 255
-0.311088  0.436068   1.30168 255 255 255
-0.0587419  -0.351005    1.67427 255 255 255
-0.23055 0.440265  1.43747 255 255 255
-0.0958824   0.446796    1.93396 255 255 255
-0.023973  0.200803   1.48748 255 255 255
-0.116722  0.480948   1.48399 255 255 255
-0.240899  0.437725   1.37866 255 255 255
0.178119 -1.49965  5.62004 255 255 255
-0.0305625   0.139006    1.48075 255 255 255
-0.120366  0.478084   1.47951 255 255 255
-0.355312  0.422766   1.37736 255 255 255
-0.0714591  0.0721519    1.47753 255 255 255
0.0367275   0.57864     2.011 255 255 255
-0.162095 -0.184847   1.50022 255 255 255
-0.069751 -0.197252   1.49005 255 255 255
   0.120402 -0.00967581     1.53533 255 255 255
-5.48788 -2.05483  7.74997 255 255 255
-5.31019 -1.82022   7.6342 255 255 255
-0.26106  0.42446  1.43515 255 255 255
-0.194377  0.487765     1.403 255 255 255
-0.00116679   -0.160673     1.49994 255 255 255
-0.124043   0.25353   1.52245 255 255 255
-0.0589235   0.313623    1.55412 255 255 255
-0.125585  0.523827   1.44431 255 255 255
-0.0530907 0.00567576     1.4715 255 255 255
-0.333718  0.347469    1.4542 255 255 255
0.0185502 -0.332619   1.68591 255 255 255
-0.186395  0.426036   1.46165 255 255 255
0.0624803  0.275086   1.53022 255 255 255
0.111551 0.194425  1.61009 255 255 255
-1.60199 -1.60366  3.27406 255 255 255
0.172664 0.161014  1.56073 255 255 255
-0.242875  0.495686   1.32554 255 255 255
-0.0828915   0.536267    1.65419 255 255 255
-0.17054 0.499796  1.38944 255 255 255
-0.361272  0.397524   1.27379 255 255 255
 -5.5214 -2.14151  7.92007 255 255 255
-5.41089 -2.10492  7.80254 255 255 255
 0.130071 -0.252718   1.70368 255 255 255
-0.201871  0.511104   1.32398 255 255 255
-1.57381 -1.63896  3.20942 255 255 255
-0.0553421   0.462585    1.96427 255 255 255
-0.101603  0.513579   1.62857 255 255 255
0.105016 0.281865   1.5521 255 255 255
0.128413  0.13037  1.76196 255 255 255
-0.0735557   0.357028    1.79134 255 255 255
0.126798 0.269299  1.67073 255 255 255
-0.272324  0.497528   1.31591 255 255 255
 -0.193581 -0.0110847    1.52201 255 255 255
-0.0965369   0.429357    1.81995 255 255 255
0.0592512  0.282228   1.54958 255 255 255
-6.89854 -1.88549  8.41023 255 255 255
-6.83796 0.493803  7.54979 255 255 255
 0.139135 -0.164492   1.75694 255 255 255
0.194365 0.124691  1.59766 255 255 255
0.038925 0.295468  1.56713 255 255 255
-0.0579186   0.453471    1.96977 255 255 255
-0.126937  0.375553   1.84296 255 255 255
-0.152356  0.499558   1.55519 255 255 255
0.0218131  0.552564   1.85843 255 255 255
-0.212858 -0.224166   1.53694 255 255 255
  0.157681 0.00637272    1.73426 255 255 255
 -0.170336 0.00899104    1.50517 255 255 255
-0.101089  0.519773    1.5934 255 255 255
-0.0905502   0.532499    1.67759 255 255 255
-6.81454 -1.79823  8.38408 255 255 255
0.0118993  0.296533   1.55991 255 255 255
 -0.222132 -0.0364465    1.52585 255 255 255
 0.104661 -0.243103   1.76077 255 255 255
-0.0003059    0.49109    1.93903 255 255 255
-0.107221  0.326858   1.56355 255 255 255
  0.150391 -0.0281774    1.58837 255 255 255
-0.0835993   0.502049     1.8411 255 255 255
-0.115818  0.449066    1.8357 255 255 255
-0.294372   0.41127   1.42479 255 255 255
-0.102837  0.270622    1.5419 255 255 255
-1.49748 -1.89101  3.08242 255 255 255
-1.58776 -1.66172  3.28118 255 255 255
0.0667514  0.308564   1.64361 255 255 255
-0.147267  0.280788   1.53541 255 255 255
  0.122352 -0.0309838    1.53978 255 255 255
  0.180587 -0.0337803    1.63811 255 255 255
 0.208963 -0.168218   1.47179 255 255 255
0.0962258  0.271409   1.53558 255 255 255
-0.0346586 -0.0997442    1.50028 255 255 255
0.0663467 -0.232495   1.55926 255 255 255
 0.211976 -0.025034   1.57093 255 255 255
0.147528  0.25041  1.63095 255 255 255
0.148006 0.274154  1.58261 255 255 255
0.146016 0.016767    1.709 255 255 255
-0.141267  0.486591   1.58018 255 255 255
-0.235243  0.414687   1.45712 255 255 255
-0.411407   0.38952   1.37614 255 255 255
0.100405 0.156462  1.51292 255 255 255
-0.104371  0.535601   1.66419 255 255 255
-0.36819 0.414535  1.27663 255 255 255
-0.31863 0.425388  1.34845 255 255 255
-0.0679155   0.490725    1.83812 255 255 255
-4.80489 -1.76117  7.41333 255 255 255
-1.96508 -1.88529  1.89452 255 255 255
-0.00642035     0.16616     1.49551 255 255 255
0.160142 0.256649  1.60202 255 255 255
-1.84241   -1.934  2.08635 255 255 255
-0.0812981   0.322293    1.57573 255 255 255
-1.90881 -1.81628  2.67511 255 255 255
-6.51296 0.521282  7.45529 255 255 255
-0.104165  0.286865   1.53429 255 255 255
-1.87361 -2.07203  2.77773 255 255 255
-2.47854 -1.95014   2.8466 255 255 255
 0.152689 -0.196789    1.6375 255 255 255
0.089337 0.150423  1.50224 255 255 255
-0.124608  0.498615   1.60578 255 255 255
-0.517493  0.295072   1.60675 255 255 255
-0.0929942   0.497319    1.77863 255 255 255
  0.128681 0.00780831    1.72641 255 255 255
-0.139718  0.174791   1.52531 255 255 255
-0.091806  0.527979   1.71384 255 255 255
-0.161057 -0.043454   1.50822 255 255 255
-0.104058  0.231142   1.52967 255 255 255
-0.156768 0.0160418   1.50999 255 255 255
-0.110466  0.125599   1.50807 255 255 255
-0.242106 -0.028926   1.52743 255 255 255
-0.12437 0.468221  1.81543 255 255 255
-0.00313988    0.499709     1.99411 255 255 255
-1.46591 -1.72939  3.33713 255 255 255
-0.0957321   0.463387    1.94183 255 255 255
 -0.239784 -0.0431024    1.52249 255 255 255
-0.0339326   0.486468    1.99828 255 255 255
 0.126417 0.0083398   1.76195 255 255 255
-0.280731 0.0201769   1.53265 255 255 255
-0.105702  0.539007   1.70737 255 255 255
0.0592671  0.231892   1.51366 255 255 255
-1.74539 -1.99501  2.74659 255 255 255
  -0.296595 -0.00672018     1.53642 255 255 255
0.0122193  0.296299   1.55981 255 255 255
-0.374605  0.336689   1.51224 255 255 255
-0.297108  0.346412    1.4998 255 255 255
0.00794183  -0.233952    1.55343 255 255 255
 -2.4083 -1.80689  2.89733 255 255 255
-0.337234  0.387538   1.43807 255 255 255
0.171366 0.186839  1.62689 255 255 255
-0.412236   0.38949   1.37665 255 255 255
-0.101114  0.283215   1.55423 255 255 255
-0.300552    0.4462   1.40509 255 255 255
0.0482077 -0.208693   1.54591 255 255 255
0.0615749  0.157268   1.49276 255 255 255
-2.63296 -1.75786  2.79285 255 255 255
-0.384848  0.410483   1.38026 255 255 255
0.102564 0.242505  1.53025 255 255 255
-1.86335 -1.99466  2.08347 255 255 255
-1.97825 -1.81476  1.92765 255 255 255
-0.0815738   0.441812    1.92628 255 255 255
 0.198411 -0.139516   1.40319 255 255 255
-0.234182  0.464561   1.47567 255 255 255
7.0333e-05   0.219838    1.50922 255 255 255
-1.60684  -1.8014  3.02339 255 255 255
-0.0704169   0.300153    1.56669 255 255 255
0.145171 0.182686  1.55628 255 255 255
