ply
format ascii 1.0
element vertex 1160
property float x
property float y
property float z
property uchar red
property uchar green
property uchar blue
end_header
-0.324609  0.377653   1.40893 210 211 213
0.0162834   1.83293   5.20959 54 53 58
-0.000886569   -0.0990849      1.47657 154 122 101
-0.858718   1.25086    6.2441 90 90 80
0.0934543   1.05297   6.04212 107 100 92
0.311542 0.233111  1.21231 70 70 60
-0.128992  0.439635    1.5261 191 168 150
-0.25172 0.430583  1.39878 200 200 200
-0.253055  0.377401   1.46143 166 166 164
-0.716466   2.24942   5.79617 73 68 62
0.0216522  0.174657   1.49013 182 150 127
 -0.561567 -0.0749348    1.60362 168 164 153
-0.00591222    0.128637     1.47574 146 119 98
-0.0314985 -0.0521622    1.47369 75 61 50
-0.202824  0.443469   1.43252 209 208 206
-0.0499642   0.522699    1.68272 122 98 86
 -0.0568539 -0.00563668      1.4681 61 48 42
0.0837953   1.43549   6.15887 95 91 80
-5.22362 -1.86756  7.49924 57 99 124
-0.0730672  0.0183871    1.47255 116 97 83
0.144281 0.246406  1.55577 190 143 123
-0.0292653     1.7949    6.04338 62 58 49
0.235181  0.32712  1.51003 108 104 95
0.0374098  0.584162   2.02838 211 211 211
-0.0234983 -0.0362834    1.46907 113 89 77
 0.14036 -1.71066  5.82934 156 158 147
-0.177747   0.41125   1.48021 197 197 195
-0.590789   2.06659   5.89115 49 44 38
-0.535118   1.98501   5.95836 79 74 68
-0.256836  0.474075   1.30643 190 190 190
-0.0333366   0.149569    1.47796 141 114 93
-0.246065   0.40805   1.44548 151 151 149
-0.114138  0.254769   1.51557 165 141 117
-0.340923  0.383028   1.37539 176 178 177
-0.665012   0.94126   6.23418 86 82 73
0.00359788  -0.218036    1.49997 38 28 19
 0.0415422 0.00967538    1.87131 60 50 41
-0.0609616  0.0252091    1.93961 207 140 121
-0.0739705   0.477842    1.82082 228 228 228
  0.12941 0.0183121   1.79533 224 180 145
-0.0335391   0.111466     1.9033 223 173 148
0.195254 0.136305  1.58791 90 86 77
 -0.011267 0.00863698    1.90236 221 170 143
-0.142401  0.467903   1.93456 233 233 235
0.0728032 0.0430369   1.85033 161 126 104
-0.191686  0.446443   2.00244 129 128 126
-0.18893 0.339366  1.84984 150 114 88
0.170541 0.103815  1.65018 159 83 70
-0.0521543  0.0204671    1.92952 248 193 173
-0.0699848  -0.195678     1.9339 43 36 28
-0.00915138   0.0617467     1.89288 226 176 153
-0.134696  0.477301   1.97466 158 158 160
   0.16929 -0.0140541    1.64749 235 186 153
 -0.015168 -0.0267557    1.90862 80 67 58
 0.0705117 -0.0154035    1.85891 72 63 54
  0.162784 -0.0324523    1.77226 108 82 67
-0.106009  0.450247   1.78934 189 154 126
 0.102795 -0.170668   1.82895 47 27 16
0.183132 0.163344  1.60466 239 185 157
-0.148961  0.440987   1.90324 198 199 201
 0.0563532 -0.0449004    1.87579 54 41 32
 0.163678 0.0834671   1.66653 238 179 149
0.169676 0.196378  1.61293 233 138 132
-0.165708  0.424403   1.94958 188 188 190
-0.0645038   0.115559    1.92376 97 64 47
0.0465975  -0.13279   1.89861 49 39 30
0.0563378 0.0267959   1.86127 61 51 41
-0.0336812 0.00945412    1.91718 82 27 20
-0.0228708  -0.189315    1.92683 72 65 57
-0.175047   0.42863   1.98163 159 159 161
-0.0452468  0.0347034    1.90806 88 38 29
-0.00706615   -0.150694     1.92767 50 41 34
   0.08912 -0.0335203    1.84933 169 131 108
-0.232282  0.424912   1.96909 198 198 200
-0.239759  0.418488   1.99029 133 133 133
-0.194525  0.387214   1.90645 192 193 195
-0.126133  0.470904   1.89694 222 223 225
 0.119483 -0.130941   1.82912 146 119 100
-0.197242  0.398787   1.94201 145 140 144
-0.170112  0.413525   1.92558 241 242 244
-0.155786  0.429263   1.90928 236 237 239
-0.0435405  0.0928835    1.91804 158 85 78
-0.00408388   0.0916715     1.87862 166 122 97
-0.0340836  -0.204838    1.93214 18 13 10
-0.0484106   0.505768    1.80303 208 210 209
 -0.02765 0.0548224   1.90429 70 13 2
-0.0329533   0.519763    1.71665 224 226 225
-0.197606  0.418354    1.9733 194 194 196
0.0948734 -0.130172   1.86054 154 135 120
 0.0777236 -0.0399961    1.85724 97 80 72
 0.0159445 -0.0430178    1.89779 50 40 31
-0.137672  0.444579   1.89091 245 246 248
-0.0608854  0.0800116    1.92791 238 182 165
-0.0562347  0.0552169    1.90452 182 116 100
-0.109959  0.469557   1.88247 238 238 240
-0.0227483 -0.0837689    1.92885 50 41 32
0.0343551  0.185093   1.82959 129 106 92
0.0745205  0.138909   1.81942 149 122 103
-0.212342  0.436903   2.01273 192 192 194
0.0292825  0.113219    1.8561 113 94 79
-0.183846  0.410241   1.94202 209 208 214
-0.0387867    0.12152    1.88013 228 178 151
 0.0547425 -0.0773235    1.88326 59 49 39
0.0231284 -0.153739   1.91094 55 48 40
-0.032311  0.314439   1.74021 163 131 106
-0.048907  0.513366     1.703 253 255 254
-0.0995177   0.497317    1.89934 203 203 205
0.0216457 -0.126217   1.91355 34 24 15
-0.0669234  -0.183137    1.94728 33 28 22
 0.122495 -0.115012   1.83144 167 133 106
-0.00107121    0.129788      1.8606 140 119 102
-0.173302  0.435074   1.95898 214 214 216
-0.163901  0.421896   1.92007 211 212 214
 0.0485703 -0.0603941    1.88644 71 61 51
  0.12218 -0.148217   1.82699 161 128 109
0.0783086  0.187394   1.80146 163 137 114
-0.185448  0.399112   1.92908 183 184 186
-0.166626   0.41833   1.93879 196 195 201
-0.0447216  -0.101103    1.94073 41 32 25
 0.0289017 -0.0400059     1.8884 44 35 26
-0.122154  0.475993   1.96669 217 217 219
-0.00876787    0.194616     1.83525 130 112 100
0.0282196  0.135738   1.85127 144 126 112
-0.0403505    0.52269    1.68566 252 254 253
0.00797284   0.181971    1.84129 115 96 82
0.0444698 0.0897345   1.85599 111 88 74
 0.01793 0.168315  1.84378 115 96 81
0.121003 0.169339  1.76139 185 153 128
0.0209269  0.249368   1.78545 120 93 74
-0.115807  0.437388    1.8584 231 235 234
-0.0728952   0.501787    1.84274 236 238 237
  0.031086 -0.0532049     1.8902 69 60 53
-0.0405228  0.0245725    1.91428 219 170 155
-0.0902675   0.478246    1.84414 247 249 248
0.0426985 -0.220979   1.87792 4 0 0
-0.0185915   0.014389    1.91816 225 152 133
0.0144308  0.167287   1.85032 134 114 103
-0.0220092   0.161188    1.86167 83 54 36
-0.01587 0.211038  1.83425 112 93 78
0.0896864  0.152245   1.79885 84 56 35
-0.129161  0.459215   1.89109 229 229 231
-0.0508919    0.50596     1.8187 229 230 232
-0.131093  0.470471   1.54953 201 167 155
0.0817703  0.151921   1.80576 161 134 113
-0.0800749   0.475257    1.82296 227 227 227
0.0512568 0.0853297   1.85685 146 127 113
-0.0351741   0.217309    1.83881 151 125 110
0.0475548 -0.170338   1.89131 104 95 88
-0.116737  0.476653   1.88805 155 155 157
-0.214025  0.405532   1.94898 139 139 139
0.0428149 -0.129876   1.90531 59 50 41
0.0461244 0.0300494   1.86868 74 64 55
0.0298056  0.128127   1.85624 123 103 92
0.0399429  0.200242   1.82219 120 97 81
-0.0010825  0.0014974     1.8957 153 114 97
-0.219919  0.395977   1.93838 205 203 206
0.0282886 -0.161107   1.91041 33 24 17
0.0376239 0.0290195    1.8701 43 33 24
0.0763141 -0.111543   1.86659 132 115 107
0.0571036 0.0940809   1.85097 169 150 136
 -0.10183 -0.197775    1.8366 49 40 33
 0.103818 -0.206247   1.87615 24 19 13
0.107349 -0.14206  1.74305 219 169 136
0.0677303  0.199601   1.77336 165 139 116
0.0205825 -0.145484   1.91993 66 56 47
0.140914 0.253251  1.63452 204 159 138
-0.141802  0.432227   1.87403 220 222 221
-0.0427566   0.109606    1.89412 220 166 140
-0.182283  0.450132    1.9765 234 234 236
  0.184717 -0.0373521    1.68637 52 34 24
  0.151505 -0.0240449    1.62013 230 180 147
 0.186212 0.0275008   1.61044 228 163 141
-0.0506156  0.0216393    1.93132 245 198 180
-0.0763702   0.505152    1.99695 202 202 204
  0.167224 -0.0301163    1.77669 106 79 60
-0.114976  0.428906   1.84382 192 158 130
-0.0589554   0.505929    1.68009 253 253 253
0.158746 0.204581  1.63351 216 161 130
-0.112694  0.486945   1.55531 126 97 91
  0.152723 0.00457189    1.63902 186 125 97
-0.149265  0.439793   1.90326 205 205 213
-0.0997965   0.525584    1.99593 184 184 186
-0.00760895    0.302027      1.7215 143 118 96
0.00710098  -0.155713    1.91905 93 83 74
-0.0598151   0.515992    1.88421 194 194 196
-0.068536 0.0454584   1.93604 243 186 166
-0.137956  0.514499   2.11836 185 185 187
-0.187157  0.471442    2.0295 177 176 182
-0.11026 0.508672   2.0353 173 173 175
-0.0663358  0.0938538    1.93508 177 130 114
-0.147442  0.465587   1.98578 220 220 222
-0.0276797  -0.102726    1.93271 60 51 42
0.0986348 -0.137504   1.84628 92 73 58
-0.0596489   0.533941    1.90231 190 190 192
-0.209799  0.360658   1.90125 204 206 201
-0.122916  0.454438   1.88709 189 189 191
-0.17667 0.464227  2.00575 194 194 196
-0.0636375 -0.0501518    1.93491 68 58 49
0.0332392 0.0905703   1.86359 134 116 102
-0.0949988   0.483414    1.97174 196 196 198
0.00969199  -0.108894    1.92102 43 33 24
-0.101816  0.508208   2.01149 169 169 171
-0.0874573   0.534986    1.99862 179 179 181
0.0226136 -0.142499   1.91508 24 14 5
-0.0228203 -0.0839744    1.92922 50 41 32
-0.108291  0.495158   1.96878 150 150 152
-0.201621   0.44199   2.00225 165 163 164
0.0235204 -0.135026   1.90843 79 69 60
 0.123802 -0.146536   1.82861 176 148 126
-0.205903  0.437483   2.00735 127 125 126
-0.146279  0.450356   1.90588 199 199 201
-0.142074  0.466043   1.97113 188 188 190
-0.245016   0.51291   2.10832 108 107 103
-0.115062   0.45324   1.54039 255 255 253
0.0562115 -0.103972   1.89658 111 101 91
-0.192898  0.547727   2.14472 147 148 143
0.154648 0.027837  1.72328 198 150 128
-0.0402523  -0.202905    1.93458 4 0 0
-0.0164975   0.312531    1.71095 174 148 123
-0.132032  0.510615   2.03915 164 164 166
-0.140689  0.344927    1.8386 143 107 85
 0.128386 -0.183547   1.80214 169 134 112
-0.0644081   0.498713    1.69927 142 116 103
-0.168608  0.553949   2.03321 182 182 184
-0.149583  0.451336    1.9123 220 221 223
-0.0451994   0.512777    1.73618 209 210 212
-0.165803  0.445209   1.96243 230 230 232
-0.23114 0.553011  2.15631 124 120 119
-0.157016  0.457812   1.98677 191 192 194
 0.145592 -0.209054   1.61298 149 150 136
-0.0374931   0.505456    1.79468 220 221 226
0.0591364  0.171313   1.81289 164 142 121
-0.204719   0.45374   2.02906 183 184 189
 0.100736 -0.173569   1.83671 46 32 23
-0.0214555  -0.163223    1.94136 23 16 10
 0.178036 -0.035451   1.74498 59 37 24
0.173638 0.165597  1.64664 184 146 127
-0.0811715   0.533614    2.01487 224 224 226
 0.04315 0.238982  1.77861 146 124 101
 0.14394 0.145201  1.74378 211 166 133
-0.0551883   0.510004    1.74513 213 214 216
0.0435728  0.185827   1.81736 163 141 120
0.0380078 0.0853399   1.86043 108 89 75
-0.0102646 -0.0793947    1.92764 88 79 70
  0.181652 -0.0216899    1.76129 205 168 150
-0.204434  0.454012   2.04018 172 172 172
0.120556 0.251088  1.69387 176 141 111
0.0778629 0.0190911   1.85139 177 137 112
0.00953138 -0.0575271    1.90811 63 54 45
-0.212305   0.45012   2.01007 189 189 191
-0.154004  0.441019   1.90992 202 202 210
0.0852576  0.193776   1.77977 170 140 114
0.0813069  0.010677   1.84961 164 128 104
0.0577221  0.215758   1.78859 179 152 131
-0.162146   0.45114   1.95127 225 225 227
0.176895 0.130204  1.63008 206 149 129
-0.157484  0.439279   1.91508 237 238 240
0.00835635 -0.0448522    1.90401 50 41 32
0.0129038   0.17728    1.8395 142 122 111
-0.0679342  0.0342761    1.90769 197 145 131
0.0354447  0.118026   1.85118 131 112 97
-0.104096  0.480798   1.88215 205 205 207
 0.122387 -0.159147    1.8173 189 151 130
-0.00185714   0.0813739     1.89047 188 142 118
 -0.1118 0.506241  2.02396 168 168 170
-0.109048  0.480769    1.8904 217 217 219
 0.0642062 -0.0314487    1.86894 75 65 56
0.0218362  0.117535    1.8596 153 133 122
-0.0833416   0.523161    1.90645 223 224 226
 0.0696373 0.00653272    1.86043 54 39 32
-0.178549  0.481552   2.03565 190 190 192
0.0560641 0.0404172   1.86342 126 110 97
-0.191906  0.468321   2.02711 179 178 184
-0.0192744   -0.19121    1.92843 58 51 43
 0.129718 -0.129321   1.63365 241 185 150
-0.195302  0.437919   1.94158 247 248 250
-0.0650525  -0.330831    1.65042 22 21 17
-1.81933  -1.7344  2.56535 52 45 37
0.0678267  0.298646   1.67825 151 128 110
-0.0395099   0.529434    1.58764 254 255 255
-0.241581  0.444235   1.36539 185 185 185
-1.87223 -2.37718  2.79267 45 41 32
   0.0910087 -0.000690487      1.80846 234 188 152
-0.0483488   0.531728    1.67765 246 248 247
-0.0508021   0.475011    1.66765 224 192 169
0.172208 0.153676  1.57775 219 161 137
0.169065 0.207941  1.64186 213 165 129
-0.0654731   0.518811    1.64436 166 141 134
 0.188577 0.0293949   1.60655 225 159 133
  0.171313 -0.0172699    1.71532 228 180 142
-0.0904433   0.440189     1.7785 223 186 157
-1.44381    -1.74   3.2175 76 69 53
-0.29054 0.418842  1.41837 230 230 230
-0.0717784   0.484552    2.02513 199 198 204
  0.104694 -0.0089664    1.54942 39 21 11
-0.0712939   0.485268    1.79724 253 255 254
-0.211511  0.505291    1.3345 205 207 206
-0.0863197   0.478843    1.72655 213 175 154
0.193277 0.163106  1.61872 222 164 142
 -1.4817 -1.76453  3.07826 155 150 121
0.161067 0.171287  1.69391 213 167 141
-0.054722  0.497454    1.7719 254 254 255
 0.146692 0.0189231   1.66233 223 177 143
-2.39923 -1.80561   2.8956 82 75 65
0.147344 0.227825  1.59802 196 140 117
-0.0712112   0.485408    1.84546 225 226 228
0.102991  -0.2862  1.70235 159 157 144
-0.298299  0.413987    1.3824 202 202 202
-1.84743 -2.43175  2.68381 255 254 232
-1.93491  -1.9064  2.64319 177 172 142
-0.0481618   0.434831    1.85179 234 234 234
-0.069389  0.513002   1.70017 154 122 107
-0.148523  0.469903   1.44674 223 224 226
0.100588 0.150259  1.51867 139 107 84
0.146711 0.274889  1.57171 197 165 142
-0.0433126    0.49827    1.96855 213 213 215
-0.267326  0.435704   1.32848 225 226 228
   0.137115 -0.00381691     1.67906 180 124 101
-0.161545  0.484408   1.42512 200 201 203
-0.0586755   0.545377    1.64019 190 190 190
0.0172249  0.582916   1.90825 228 229 231
  0.168043 -0.0530547    1.58495 213 165 142
 -2.2254 -1.90661  2.79532 185 179 167
 -2.5585 -1.86753  2.87939 189 182 156
-0.0665866   0.493693    1.85891 200 195 199
-0.0839907  0.0446301    1.92772 251 199 177
0.110731 0.284259  1.67508 124 99 79
  -0.0297179 -0.000725609      1.89854 234 178 153
0.195015 0.105911  1.56707 12 0 0
-0.0944832   0.459116    1.81284 110 81 67
-0.223366    0.3449   1.88578 104 105 99
-1.91474 -2.31916  2.71509 29 22 12
-0.383174  0.399103   1.26531 191 192 194
 0.050028 -0.307715   1.64925 26 27 22
 0.205692 0.0853441   1.63907 176 114 91
0.0389704  0.574402    1.8491 252 255 255
-0.127058  0.425746   1.87357 211 207 208
-0.157202  0.534426   1.36827 223 224 226
 0.095539 -0.294011   1.62496 113 113 103
-0.24899 0.450484  1.33705 192 192 192
-0.215021  0.515048   1.31604 223 224 226
-0.255961  0.427605   1.41245 224 224 224
-0.0539923   0.525985    1.66277 237 236 234
0.219725 0.112779   1.6172 99 39 28
-0.246493  0.376572   1.46113 228 230 229
-0.0435447   0.476363    1.96087 216 218 217
 -0.1159 0.461663  1.99331 223 223 223
-0.324106  0.440508   1.26912 232 234 233
0.00062176   0.503202    1.94672 221 221 223
 0.0932333 -0.0214044     1.8131 162 122 97
-0.0493062   0.520721    1.84152 219 219 221
-1.38688 -1.68655  3.07645 136 131 112
-0.199124  0.445407   1.41267 220 221 223
0.163796 0.106824  1.56399 196 142 118
-0.0753368  -0.186256    1.95218 120 118 106
-0.344368  0.436948   1.25291 202 203 205
-0.0290898   0.542766    1.83727 237 238 243
 0.175085 0.0944374   1.55885 163 118 97
0.0278237  0.316135   1.65838 77 56 37
-0.249287  0.367076   1.90339 195 194 199
0.0857427  0.299809   1.66675 167 145 124
0.187931 0.159721  1.58579 216 151 131
-1.84021 -2.35347  2.85913 204 201 184
-0.101133  0.458773   1.80198 188 152 130
-0.128687  0.506503    1.4521 234 234 234
0.111711  0.17565  1.53217 211 158 127
-1.85914 -1.92503   2.0154 118 110 89
-0.315158  0.453191   1.24165 190 191 193
-0.161519  0.509583   1.37486 231 233 232
-0.177394  0.507059   1.36649 203 205 204
-0.106708  0.459894   1.80426 188 152 130
-0.0814082   0.540482    1.55217 242 244 243
-0.0747181   0.483208    1.86316 192 190 191
-1.79682 -2.04523  2.23973 161 157 145
 0.133132 0.0122419   1.77153 178 117 88
-0.0843568   0.469413    1.85467 247 249 248
-0.180633  0.446984   1.47388 202 204 201
-0.0218628   0.560986    1.70712 246 250 251
-0.303693  0.325379   1.48907 176 176 174
0.151805 0.286136  1.62465 180 145 126
-1.56768 -1.70329  3.24756 178 171 152
-0.0325658   0.527736    1.83809 216 217 219
-0.18965 0.508972  1.33394 229 231 230
-2.48274 -1.73147  2.90127 95 91 80
  0.182308 -0.0264029    1.69747 83 57 40
-0.0352098   0.558349     1.6184 253 255 254
-0.195369  0.521719   1.31179 193 194 196
0.160254 0.202918  1.59523 217 134 120
-1.51099 -1.70196  3.19418 135 129 103
0.0590193 -0.265759   1.55959 114 110 99
-0.0842303   0.502375    1.61547 218 185 168
-1.56789 -1.67955  3.23311 76 70 54
-0.320096   0.45094   1.26176 226 227 229
0.0298052  0.572709   1.84664 215 215 217
0.0764654  0.292743   1.68577 145 123 102
 0.144655 -0.218305   1.67291 30 25 19
-0.106729   0.53702   1.49955 251 252 254
-2.00048 -1.88439  1.86877 126 107 74
-0.111448  0.453334   1.89268 241 241 243
-0.122521  0.448999   1.90282 211 212 214
  0.162176 -0.0437523    1.58146 70 48 37
0.143484 0.024393  1.72377 214 174 139
0.0137876  0.557813   1.85956 230 231 233
-0.150435  0.537002   1.37758 206 207 209
-1.34981 -1.65283  3.04167 105 98 79
0.135773 0.213889  1.56844 192 142 109
-0.0697925   0.321177    1.55541 101 82 68
-0.190502  0.442454   1.44349 235 238 243
-0.142174  0.495928   1.43364 235 237 236
0.155362 0.257504   1.5644 204 159 140
-0.125627  0.524986   1.43248 209 210 212
-2.06179 -1.89221  1.97046 47 38 29
0.156058 0.178528  1.69977 174 126 103
-0.127881  0.515256   1.48491 194 194 196
  0.175071 -0.0325983    1.65234 167 130 114
-0.0359876   0.534505    1.76209 235 239 248
0.157901 0.226816   1.6168 209 148 119
-0.090438 0.0733439   1.92364 250 189 168
-0.0720107   0.450223    1.63846 238 203 181
-0.0690737    0.45061    1.63683 238 203 181
-1.61406  -1.7752  3.03376 134 127 109
-0.0610466   0.411647    1.60258 207 171 145
-0.0208129   0.542942    1.95595 202 202 200
0.090454 0.297344  1.60326 98 79 62
0.0363447  0.288772   1.55374 141 118 102
-0.0974455   0.459926    1.88145 217 217 219
-0.288275  0.389768   1.43738 227 227 227
 -2.0009 -1.89496  2.11848 91 83 72
-0.219019  0.440316   1.41839 211 211 211
-0.0978346   0.534482    1.51169 220 221 223
-0.320084  0.361521   1.44218 182 182 182
-1.39379 -1.76005  3.04625 140 133 115
 -1.4349 -1.87246  3.04538 156 149 130
-2.47612 -1.98231  2.87861 84 77 59
-2.58535 -2.05181  3.01393 77 71 59
-0.210475  0.518377   1.31091 211 212 214
0.0257992  0.583878   1.84405 205 206 208
-0.0294743   0.535707    1.74497 225 228 233
-0.0407356   0.567192    1.65764 232 233 235
-0.126046  0.529863    1.4259 226 227 229
 0.125438 -0.199228   1.65799 197 155 133
-0.0190566   0.548599    1.89203 226 226 228
-1.35013 -1.66159  3.05915 108 101 82
-1.60651 -1.74524  3.21896 52 45 29
0.165849  0.25496  1.61509 227 182 159
-0.0354345   0.563139    1.68696 226 227 231
-1.58953 -1.70737  2.99684 144 140 128
 0.0740079 -0.0984625    1.85403 81 65 50
 0.108666 -0.199305   1.79524 78 57 36
-0.0762811   0.486276    1.70323 217 181 159
-2.03804 -1.90855  1.85506 99 91 80
-0.0842835   0.500572    1.69812 220 185 166
 0.164455 -0.052474   1.71197 80 60 49
0.173722 0.188157  1.57197 238 143 139
-0.125601  0.453911   1.89885 220 221 223
-0.103173  0.455454     1.826 239 221 217
-0.0654692   0.531314     1.6376 236 228 226
 0.124675 -0.237217   1.68413 20 13 7
-1.87949  -1.9333  2.03725 150 142 121
-1.57835 -1.67213  3.25358 203 199 187
-0.297278    0.4015    1.4246 229 229 229
-0.0285202   0.570071     1.7109 192 195 200
-1.58919 -1.80067  2.97001 46 39 21
-0.0214911  -0.199346    1.92147 99 99 89
  0.192582 -0.0422681    1.64068 214 163 142
-0.140131  0.494798   1.47976 191 191 193
 0.114274 0.0134952   1.53957 198 153 132
0.193912 0.159467  1.60283 215 146 130
0.184131 0.161737  1.64713 226 184 160
  0.199349 -0.0433177    1.66503 221 175 152
0.0538405  0.304322   1.57743 134 111 95
   0.120964 -0.00301971     1.68049 111 53 29
-2.01263 -1.86344  1.88548 93 78 49
0.0431033  0.575132   1.85574 202 203 208
0.120658 0.225789  1.53581 188 143 112
-0.0619743   0.531856    1.65002 184 179 175
0.141427 0.263073   1.6651 203 162 132
0.147083 0.235651  1.66688 233 183 148
-0.123808  0.510301   1.47902 228 229 231
-0.0929555   0.464833    1.56437 216 181 159
-0.167713   0.48168      1.41 245 245 245
0.0801677  0.299378   1.63864 103 80 64
0.176716 0.195154  1.59794 242 143 138
-0.117834  0.469273   2.02021 211 212 214
0.128488 0.221983  1.71948 216 175 143
-0.0355343   0.539911    1.75373 232 240 243
-0.193262  0.504848   1.33786 235 237 236
-0.118456  0.417916   1.52647 194 166 145
-0.315358  0.441728   1.26664 237 238 240
-0.0800985   0.556614    1.51883 196 197 199
-0.317042  0.382238   1.39572 211 213 212
-0.058572   0.51498   1.59972 157 131 118
-2.01772 -1.96322  1.85135 60 51 36
-0.0943851   0.493401    1.57974 221 192 178
-0.0361498   0.344835    1.70076 207 173 146
  0.146245 -0.0060053     1.7149 51 41 31
-0.120212  0.472126   1.56198 223 186 168
-0.0328998   0.341309    1.73046 216 184 159
0.195558 0.170328  1.58016 228 140 128
-1.89846 -1.84284  2.06289 87 80 64
  0.105762 -0.0171842    1.55645 39 26 18
-0.0677745   0.311349    1.55761 137 115 94
0.116727 0.233302  1.53928 170 130 104
-2.60346 -1.89984  3.00434 95 87 74
0.174665 0.196589  1.59114 244 142 138
-0.0689825   0.497974    1.68253 219 184 164
-2.49842 -1.99088  2.85914 251 244 225
0.188699 0.131345  1.58752 218 176 152
0.157131 0.245913  1.57325 212 169 150
0.172847 0.169523  1.67316 208 164 139
-1.82289 -1.91004  2.01684 129 117 91
-0.0239032   0.352237    1.68953 229 193 167
-1.98526 -1.95821  1.84559 118 111 95
 0.101583 -0.153215   1.58499 222 177 148
  0.227878 -0.0163854    1.65057 66 19 25
-0.229164 0.0818108   1.50713 131 94 76
1.10353 1.57706 4.67704 232 233 227
0.0240247 0.0465898   1.46281 175 130 107
 1.45775 -1.52374  5.07792 63 87 135
-0.0172298 -0.0166084    1.47421 163 118 97
-0.150327  0.059086   1.46986 214 163 134
0.00483015  -0.096334    1.48132 180 138 114
-0.208852  -0.27342   1.57746 52 43 36
1.45325 1.51786 5.01523 188 188 186
-0.357965  0.391034   1.36311 154 153 149
0.196533 0.146416  1.62507 66 24 28
-0.0322989 -0.0464166    1.47191 74 60 51
 -0.172784 -0.0334557    1.46668 232 180 158
  -0.18116 -0.0982733    1.48487 51 34 26
 1.51095 -1.41028  5.08168 62 112 163
-0.0207473   0.608723    1.53871 197 197 197
-0.129537  0.424294     1.518 198 167 139
1.40513 1.56702 4.90095 161 162 157
0.154421 0.222884  1.62896 70 29 33
  0.100713 -0.0696358    1.50416 216 171 148
1.48925 1.45474  4.9186 128 128 120
-0.183154 -0.019327   1.46003 235 177 153
-0.224719  0.450105   1.33346 212 212 212
-0.0559111   0.582514    1.52316 236 236 236
-0.0403126   0.596798    1.51729 244 246 245
-0.0678212   0.319576    1.55412 189 158 130
0.879392 -1.33337  5.42171 66 50 50
-0.290845  0.398631   1.38697 204 204 202
0.819796  1.86398  4.68849 189 186 177
-0.0226126 -0.0314804    1.47186 138 101 82
-0.244152  0.339498   1.47542 199 195 186
-0.200018  0.360884   1.48085 170 139 111
-0.174125 0.0794092   1.50635 126 70 57
 0.180471 0.0989752   1.55549 227 176 149
0.0306889  0.575844   1.76792 227 229 228
-0.354902  0.402838   1.37247 167 167 165
 -0.274753 -0.0538696     1.5271 69 55 46
-0.207646 -0.177591    1.4998 43 33 24
-0.229687 -0.200531   1.51679 38 29 20
 1.35339 -1.70629  5.22801 29 25 22
-0.218114 -0.201509   1.50904 71 62 53
 -2.0563 -1.94861  6.53259 19 17 20
-0.282246  0.419437    1.3818 169 169 167
1.54615 1.44209 4.74317 133 134 126
 1.56521 -1.48684   5.0251 227 223 211
-0.249809  0.346191   1.45662 165 161 152
-0.259033   0.35564   1.46661 190 190 182
0.749648 -1.74607  5.57963 25 27 26
-0.0114266  -0.110153    1.47172 93 74 59
-0.181859 -0.235286   1.49925 38 29 24
-0.339569  0.407749   1.35635 162 162 162
-0.110256 -0.194273   1.47507 34 24 22
 -0.248676 -0.0217046    1.52103 75 65 55
-0.171542 -0.236483   1.49579 82 73 68
-0.0704992   0.173083     1.4855 124 105 90
0.756213 -1.49547  5.42335 142 46 32
-0.218756 -0.185899   1.50582 64 54 45
 0.41625 -1.85099  5.70986 51 80 98
-0.162187 -0.118306   1.47625 82 63 56
0.920273 -1.34066   5.3393 197 208 210
0.609388  1.40831  5.91318 66 62 53
1.75022 1.49094 5.21875 153 153 145
0.118394 0.268458   1.5575 184 152 129
-0.0556728 -0.0604381    1.47357 51 41 32
-0.32496 0.378824  1.40521 211 211 211
1.37878 1.53159 4.91463 202 202 200
-0.208794 -0.159617   1.49836 81 67 58
  0.122403 -0.0621971    1.51582 203 172 151
-0.151207  0.479639   1.47149 232 232 232
-0.352323  0.327506   1.50755 148 146 134
0.110633 0.181146  1.53679 249 214 186
-0.155493  0.453924   1.47934 209 209 207
0.177786 0.272576  1.52105 98 94 83
-0.129114 0.0533016   1.47712 171 121 96
-0.0816361  -0.104593    1.47493 92 78 69
-0.0496063  -0.158445    1.47075 48 39 32
  -0.0579707 -0.000100026       1.4671 60 43 35
-0.216515 -0.153773   1.50373 46 32 23
-2.06297 -1.71804  6.42795 184 180 169
-0.0622112   0.595319    1.46558 237 239 238
1.02526 1.27601 5.80733 92 88 79
-1.98328 -1.57946  6.36052 202 209 193
-0.0744988   0.278639    1.52516 142 116 93
-0.196381  0.374277   1.47835 228 223 217
1.15472 1.36372 5.92101 112 108 99
 1.5121 1.50742 5.59771 138 138 128
-0.229449  0.436337   1.41391 226 226 224
-0.0705643   0.027247    1.46579 90 71 57
-1.98944 -1.63174  6.39025 59 46 37
 -0.0433354 -0.00295114     1.46483 76 49 38
-0.224211 -0.251411    1.5289 34 25 18
-1.14955 0.795515  6.42033 59 55 46
-0.15188 0.480477   1.4387 196 196 194
-0.113968 -0.115022   1.47386 62 52 42
0.98026 -1.3842 5.51681 173 178 171
-0.134383 -0.208037   1.48203 24 19 13
0.914138   1.5392  5.86878 97 93 84
-0.0430806  0.0985578    1.47246 145 122 104
1.12502 1.04264 4.02721 131 127 118
 1.41449 -1.40874   5.1798 100 131 152
-0.164792  0.424314   1.48953 191 191 189
-0.280557  0.426099   1.38311 164 164 162
-0.333533  0.395798   1.36977 228 228 228
-0.173072 -0.180123    1.4863 40 30 21
-0.103266  0.265706   1.51659 184 154 130
-0.118938 -0.148185   1.47112 59 49 40
1.43765 -1.3571 5.08345 215 213 214
-0.129317  0.546005   1.39481 233 235 234
-0.00326745    0.167483     1.48349 143 115 93
0.267982 -1.74133  5.78931 154 156 145
0.155134 0.123145  1.56016 175 117 97
-0.0782737 -0.0922852    1.47447 96 83 74
-0.0783295 -0.0922736    1.47414 96 83 74
-0.038064 -0.029098   1.47086 101 83 69
-0.172204 -0.149463   1.48102 55 41 32
-0.172364 -0.149403   1.48034 55 41 32
 0.142659 0.0550974   1.57839 187 135 114
0.0310846  0.137681   1.47919 180 148 125
-0.0480692   0.609675    1.47961 214 216 215
-0.236539 -0.210196   1.51981 66 57 50
-0.253176   0.43114   1.38047 206 206 206
-0.202691  -0.24674   1.51376 38 29 22
-0.0374249  -0.223738    1.48527 28 23 20
-0.0432954   0.154687    1.47847 153 131 110
-0.126943 -0.102264   1.47302 87 73 64
-0.147181  -0.12734   1.47224 80 66 57
1.35745 1.44636 4.95816 156 155 151
-0.117429  0.529883   1.44452 213 213 211
-0.079369 -0.124057   1.46808 75 65 55
1.50637 1.48273 5.17327 233 234 228
-0.403889  0.388683   1.37833 202 202 202
1.12643 1.20428 5.87903 118 114 105
0.406117 0.581752  2.55729 98 94 85
-0.199771 -0.179676   1.49853 77 67 58
 1.0633 1.32386 5.90647 117 113 104
0.050139 0.259404   1.5339 139 113 90
1.69793 1.42859 5.19199 158 158 148
-0.0754935   0.236747    1.51188 143 118 98
0.342843 -1.92353  5.74616 157 154 139
0.0166953  0.288219   1.54486 159 133 110
0.954564 -1.40095  5.38688 169 181 181
-0.0974481   0.258389    1.51549 160 134 111
-0.356476  0.403192   1.29919 189 189 187
-0.393592  0.392115   1.37083 213 213 213
0.288223 -1.97437  6.06184 87 133 157
-0.345751  0.431289   1.30868 210 212 211
-0.0322721  0.0682563    1.46279 140 118 95
 1.42008 -1.44942  5.19884 207 215 217
-0.197101 -0.149256   1.49319 77 63 54
0.0384085 -0.218877   1.50774 149 117 102
-1.95423 -1.76701  6.43798 35 16 9
 0.39176 -1.92576  5.77133 149 145 133
-0.153769  0.513567   1.39164 238 238 238
 -0.15418 -0.128504    1.4744 44 30 21
-0.44876 0.402393  1.36727 145 144 139
-0.0380071 -0.0221288    1.46721 111 89 75
-1.92111 -1.62557  6.46961 65 40 35
0.0785268 -0.180511   1.51711 215 170 141
1.55376 -1.2942 5.09278 48 40 61
0.853071 -1.47175  5.42042 200 201 203
-0.285449   0.42411   1.37637 203 203 201
-0.345803  0.403311   1.30182 171 171 169
-0.0544396   0.201054    1.49415 146 124 103
0.511725  -1.8864   5.8743 160 158 146
-0.200933    0.4025   1.47488 191 192 187
-0.0876339   0.163035    1.48166 127 104 90
1.04075 1.60538   4.924 151 146 142
-0.0548626    0.11314    1.47366 105 82 66
1.15415 1.09827 3.97593 125 122 113
1.73087 1.48558 5.09188 121 122 117
 -0.16351 -0.205512    1.4918 59 52 44
-0.0638253   0.562828    1.51815 244 244 244
0.465301 -1.87737  5.79583 163 169 167
0.719948  1.68366  5.85708 50 49 45
0.938457  1.89458  4.66026 201 172 177
-0.117513  0.160699   1.49067 130 107 91
-0.00901364    0.160128     1.48558 167 139 117
-0.209017  0.447111   1.41119 197 197 197
0.870205 -1.59576  5.30771 167 211 214
-0.33778 0.362512  1.41816 165 165 163
-0.0105511   0.168762    1.48708 165 139 116
-0.0704367   0.509516     1.5666 229 229 227
-0.254333  0.466719    1.3248 204 204 202
-0.271637  0.470572   1.31553 206 206 206
 -0.242176 -0.0648532    1.51089 44 30 21
0.903964  1.51076   5.8837 73 69 60
 1.33601 -1.40311  5.08147 172 181 180
 1.54733 -1.49075  4.99959 251 255 253
1.12228 1.23558 5.89358 85 81 72
-0.101405 -0.259788   1.50239 37 36 34
-0.135821 -0.130849   1.47135 86 73 64
-2.21537  -1.7174  5.91443 25 24 19
-0.35116 0.419886  1.30413 203 203 201
-0.291557  0.459856   1.30843 180 180 180
0.895646 -1.50894  5.38997 178 218 209
-0.260282  0.485025    1.3187 224 224 224
-0.184658 -0.248857     1.502 35 25 23
-0.109155  0.122457   1.48342 135 110 90
-0.272603  0.383912   1.44633 147 146 141
-2.13138 -1.60696  6.50081 52 48 39
-0.0769703  0.0760388    1.47157 90 71 57
-0.256711  0.409896   1.41483 189 189 187
0.768594 -1.45839  5.40516 238 193 170
-0.249387 -0.233186   1.53794 51 42 35
-0.0390981  -0.154238    1.47053 53 43 33
-0.182375 -0.269256   1.66785 37 32 26
-0.0391428  0.0897071    1.48774 114 91 73
-1.52407 -1.77589   2.9924 140 132 113
-0.0878261   0.457478    1.73821 227 196 167
0.0699131  0.715602   1.66761 214 218 217
-0.275836  0.397162   1.41711 195 197 196
-0.202152  0.450085   1.41606 217 219 218
0.0719965  -1.46173   5.93333 139 139 129
0.197311 0.111714  1.57674 103 42 37
  0.111935 -0.0540621     1.5114 158 132 115
-0.069524  0.561962   1.51137 220 222 221
0.012512 0.613482  1.65214 239 241 240
-0.979128  0.757608   6.44358 81 77 66
-0.018001  0.551521   1.63587 243 245 244
-0.195168   0.40081    1.4492 165 165 163
-0.184099  -1.32918   5.61073 68 22 25
-1.21751 0.737414  6.40137 63 59 50
-0.170493  0.471104   1.40993 201 201 201
0.00372516   0.582938    1.62903 227 228 230
0.0691669  0.667455   1.81737 236 242 242
-0.0711398   0.575381    1.46495 227 229 228
-0.196963  0.499469   1.32695 223 225 224
-0.177535  0.419715   1.47645 243 243 241
-0.128477 0.0717728    1.4851 179 128 107
-0.347401  0.356459   1.42738 164 164 162
-0.142278  0.536829   1.37705 217 219 218
-0.00848441    0.654839     1.53448 244 245 247
-0.840969  0.742092   6.39155 65 61 52
 -0.141825 -0.0158646    1.49734 133 83 58
0.120962  0.16922  1.52463 224 188 154
0.0545592   0.61297   1.80026 229 229 229
0.0613941  0.609081   1.78348 219 223 224
-0.23184   1.5659  6.00434 62 58 49
-0.190326  0.485319   1.34155 192 192 192
-0.135653  0.549548   1.35191 192 193 195
-0.270492  0.334379   1.47225 163 159 150
-0.0573246   0.473353    1.95759 215 214 212
-0.171603   0.51216   1.35588 203 205 204
-0.537263   1.39163   6.19354 67 63 52
0.0308282  0.563617   2.01595 201 201 201
-0.00934414     0.47569     1.80099 247 248 252
 -0.2596 0.411397  1.39984 230 230 228
0.000817559    0.637687     1.54877 201 203 202
-0.190276  0.522349   1.32311 172 173 175
-0.101734 -0.211163   1.49391 19 12 4
  0.103495 0.00846672     1.5461 208 165 146
-0.299917   1.39657   6.02835 59 55 46
-0.00838449     0.66028     1.52414 229 231 230
-0.233713  0.430082   1.38259 165 165 165
-0.651219  0.817572   6.35262 58 54 45
-0.702563   1.47521   6.25132 62 58 49
-0.0865503     1.6035    6.21424 83 83 75
-0.00749204    0.519037     1.71399 227 229 228
-0.263174  0.442374   1.34199 206 206 206
-0.093327   1.15737   6.08895 69 65 56
-0.154096  0.518092    1.3737 195 197 196
-0.341732  0.912721      6.17 66 62 53
-0.296947  0.632093    5.2188 73 66 58
 0.129347 -0.256353   1.70748 56 56 48
-0.0349739  -0.198304     1.4904 58 49 40
-0.0558856   0.608857    1.45143 202 203 205
-0.354971 0.0951651   4.83179 3 4 0
0.0622051   0.59398   1.91695 249 251 250
0.186869 0.120917  1.59764 169 104 82
-0.157613  0.483472   1.38737 207 209 208
   0.109734 0.000165893     1.52153 109 66 47
0.0110549  0.567745   1.69545 250 254 255
-0.0696029  -0.040982    1.47725 41 31 22
-0.57804  1.46773  6.36921 96 92 83
  0.132834 -0.0642881    1.53999 199 163 139
0.00320966   0.601437    1.64754 248 250 249
0.134779 0.214046   1.5674 227 170 140
0.252045 -1.63214  5.64429 148 134 108
-1.44409 -1.82335  2.97038 164 158 134
-0.167251  0.476966   1.37108 219 221 220
-0.00133491    0.548188     1.67086 253 255 254
-0.132829  0.495011   1.44159 246 248 247
0.0153591   0.86146   2.32989 247 248 250
0.014736 0.528353  1.85177 242 244 243
-0.086872  0.559081   1.47238 207 209 208
-0.27207 0.459641  1.31195 194 194 192
-1.53655 -1.76927   2.9768 115 107 88
-0.187861   0.50255   1.33622 203 205 204
-0.118633  0.489094   1.47923 194 196 195
0.103727 0.642209  5.03002 136 129 123
-0.0904769   0.497641    1.54796 221 221 219
-0.0957702   0.499017     1.5585 219 219 217
  -0.162749 -0.00284995     1.49881 136 78 64
-0.0896589  -0.108219    1.47662 44 36 25
0.0268075  0.539032   1.78006 213 217 218
-0.0439476   0.604516    1.49518 243 244 246
-0.240553   1.44779   6.14499 97 93 84
-0.0517961   0.563527    1.52831 222 224 223
-0.191527  0.516964   1.32479 228 229 231
-0.0517398   0.612661    1.45845 239 240 242
-0.0572468   0.583882    1.49251 205 206 208
-0.0009248   0.586432    1.62677 236 240 241
-0.0708614   0.263409    1.52829 136 111 89
-0.0172327    0.63281    1.53811 207 209 208
-0.130018  0.432278   1.50835 255 255 246
-0.0740812   0.569606    1.46791 214 216 215
-0.0494752   0.619166    1.46015 241 242 244
-0.197647  0.380244   1.47387 228 223 217
-1.41418 -1.85379  2.97346 158 151 132
-0.29342 0.425864  1.36847 163 165 164
-0.11561 0.525582  1.44356 204 205 207
  -0.139408 -0.00953331     1.47241 156 101 80
-0.159792 -0.198998   1.49701 27 18 9
-0.089661  0.521887   1.46738 205 206 208
-0.050939  0.569001   1.54118 201 203 202
-0.22859 0.293756  1.48968 120 87 68
-0.0583432   0.592183    1.48146 190 191 193
-0.0491813   0.603524    1.48593 228 229 231
0.188462 0.165886  1.62134 250 190 166
   0.11272 -0.0648019    1.50173 188 144 119
-1.54736 -1.72491   3.0378 135 128 110
0.0261715   0.29184   1.54277 177 151 128
-0.00328087    0.550376      1.7064 253 255 254
-0.0485017    1.13634    6.10311 61 57 46
-0.0477549   0.600615    1.49238 206 208 207
-0.663937  0.943977   6.22297 76 69 61
-0.529859   1.64071    6.0453 49 48 43
-0.00832702     0.64422     1.53861 198 199 201
-0.197845  0.397119   1.47402 232 232 230
-1.46539 -1.77179  2.90794 106 98 79
0.0753267  0.626097   1.79257 212 216 217
 -1.5698 -1.62205  3.07169 122 117 97
0.190748 0.701578  2.85654 69 65 56
-0.282225  0.427039   1.35681 198 198 198
0.0451798  0.579876    2.0244 245 245 245
-0.0974019   0.547753    1.44878 202 204 203
-0.0329216   0.602268     1.5292 211 213 212
-0.258699  0.463698   1.31917 137 137 135
-0.0772239   0.202746    1.49654 136 117 100
-0.897118  0.726691   6.38396 61 57 48
-0.0645254   0.480422    1.68524 229 198 170
0.191513 -1.47046  5.68958 155 153 140
-0.0670642 -0.0337665    1.47595 41 31 22
-0.0344836   0.504504    1.74349 204 170 158
-0.00387307     0.16054     1.47511 156 131 109
  -0.11803 -0.0980254    1.47682 106 92 83
-0.377658  0.904596    6.2345 112 108 97
0.0333767  0.213641   1.50435 169 138 109
-0.333973  0.395968   1.36955 219 221 220
-0.260206  0.401838   1.40957 213 213 213
 0.100819 0.0910237   1.52036 239 205 178
-0.0535541  0.0991842    1.47425 100 77 61
-0.23811 0.294531  1.48409 133 96 77
 -0.162026 -0.0486001    1.45699 128 60 47
0.129496 0.156978  1.56128 225 195 171
-0.0914684   0.361762    1.56868 222 191 162
-0.223029   -0.3417   1.70097 21 20 18
-0.419901  0.444029   1.24104 162 158 149
-0.141403  0.397485   1.52301 200 168 145
-0.210063  0.500669   1.24894 193 193 193
1.07447 1.15522 3.36284 202 199 184
-0.110905  0.467016   1.50668 230 231 226
-0.295397  0.488539   1.21234 175 170 167
-0.415909  0.403022    1.3471 161 156 153
-0.310193  0.452212   1.29928 216 218 217
-0.272755  0.419963   1.38363 187 187 185
-0.302027      0.35   1.45606 182 181 177
-0.399267   0.39224   1.37308 186 186 186
-0.315197  0.452199   1.24738 183 182 180
-0.33537 0.385215  1.47361 226 226 224
-0.39935 0.364852   1.3716 149 145 136
-0.149506 0.0145265   1.46693 114 56 45
-0.416047  0.410998   1.28858 193 193 191
-0.0729252   0.309318     1.5446 169 138 110
-0.241227   0.48751   1.29872 212 212 212
-0.363996 0.0335346   1.73899 114 108 96
1.13389 1.13634 3.73288 217 221 220
-0.210579  0.470958   1.27816 202 200 201
-0.457511  0.420667   1.28271 170 170 168
-0.455309  0.418181   1.34208 132 128 117
-0.450177  0.481129    1.1929 153 152 148
-0.259042  0.502098   1.24442 211 211 211
-0.356882  0.339849   1.47456 147 143 132
-0.35719 0.343806  1.49482 163 157 143
1.09517  1.2161 3.31772 60 60 60
1.25009  1.1731 3.80524 124 123 119
-0.470244  0.470805    1.1948 145 138 132
-0.429761  0.444308   1.21943 135 128 120
-0.31933 0.496094  1.21361 236 236 234
-0.428874  0.404776   1.32065 143 137 125
-0.413689  0.429936   1.42273 174 173 169
-0.984281  0.580643    4.9311 61 58 49
-0.263499   0.47549   1.29337 229 229 229
-0.388003  0.402636   1.29598 203 203 201
-0.42375 0.471492  1.20699 137 132 126
-0.384389  0.348193   1.41844 143 139 127
 -0.11654 0.0579842   1.49089 149 104 85
-0.32035 0.482444  1.22183 163 156 148
-0.438968  0.476347   1.20141 173 172 168
-0.420494  0.394379   1.36119 138 134 123
-0.723617  0.257012   8.00671 107 104 95
-0.359368  0.439573   1.29785 170 170 170
-0.459067  0.402931   1.35039 176 177 172
-0.146635  0.468945   1.45108 227 227 225
-0.415499  0.342709    1.4244 138 135 120
-0.013172 -0.050274    1.4754 134 99 77
-0.398535  0.426222   1.27522 145 140 136
-0.224487  0.441491   1.31308 212 212 212
-0.290288 -0.309104   1.67604 180 172 161
-0.35271 0.404365  1.49754 170 170 162
1.05901 1.28063 3.37577 202 202 178
-0.361433  0.470017    1.2151 212 216 215
-0.376789  0.418291    1.4881 176 173 166
-0.467652  0.454855   1.21482 133 129 120
-0.262276  0.463088    1.3194 172 172 170
-0.183452 -0.018847   1.45682 235 177 153
-0.444049  0.448273    1.2194 199 199 199
-0.423561  0.364782   1.45218 171 171 161
-0.39868 0.436888  1.21937 146 142 133
 -0.277042 -0.0549036    1.54617 69 55 46
 -0.236982 -0.0130071    1.50954 58 43 36
-0.379551  0.359794   1.39737 181 182 177
-0.47499 0.455858  1.20193 159 156 147
0.994716  1.03949  3.90738 129 125 116
-0.330641  0.470879   1.25899 220 220 218
-0.40427 0.464394  1.21011 145 145 143
-0.422251  0.432634   1.21996 137 128 123
-0.374831 -0.140156   1.75649 178 172 158
-0.361729  0.445522   1.21535 173 169 168
-0.241866  0.396427   1.46576 235 234 230
-0.378027  0.481561   1.20357 166 166 166
  -0.19705 -0.0851699     1.4639 49 29 22
-0.36004  0.44163  1.24399 182 182 180
-0.367381  0.489224    1.2009 174 174 174
-0.447328  0.434408   1.24042 142 135 127
-0.00384091    0.574597     1.66562 210 210 210
-0.0643024  -0.177485    1.47166 46 39 31
-0.384081  0.441761   1.22792 164 164 156
-0.401049  0.378427   1.49938 197 193 184
-0.318311  0.293008   1.53816 99 60 43
-1.93327 -1.46809  6.61285 154 147 137
-0.329865  0.351144   1.47216 146 142 133
-0.449693  0.363122   1.70954 84 80 71
-0.327663  0.349412   1.46234 146 142 133
-0.363356    0.4642   1.22305 159 151 148
-0.0528272   0.504354     1.5981 253 253 251
-0.494107  0.447675   1.25764 123 125 114
   0.119981 -0.00855359     1.53113 78 48 38
-0.441041  0.412538   1.29953 167 166 161
-0.448894  0.416626   1.46454 162 155 145
-0.379816  0.368833   1.47247 147 143 134
-0.372554  0.379162   1.38412 186 185 181
0.0339447  0.656909    1.5672 247 249 248
-0.343247  0.453279   1.21804 183 178 174
-0.170935 0.0152492   1.48438 114 54 44
-0.0368997   0.503038    1.76792 201 170 150
-0.458073  0.432874   1.25157 177 177 175
-0.384555  0.459433   1.21651 193 193 191
-0.0941996  -0.205595    1.47338 36 28 25
-0.425496  0.452848   1.21635 158 157 155
-0.444809  0.427943   1.26411 141 141 139
 1.02963 -1.78119  5.63311 50 49 45
-0.410074  0.428579   1.27413 181 181 181
-0.160823  0.479375   1.47093 183 183 183
-0.363349  0.432445   1.28783 158 158 158
-0.437954  0.431985   1.26747 187 186 184
-1.59119 0.773317   6.8253 62 53 44
-0.415961  0.456337   1.21103 164 164 162
-0.420091  0.425126   1.27836 158 158 158
1.34916 1.10457 3.85846 149 150 145
-0.456551   0.42748   1.27366 179 179 177
-0.0484378   0.506039    1.68216 197 170 153
-0.0494668   0.305639     1.5358 158 130 106
-0.462589  0.430983   1.26893 146 146 144
0.0183157   0.58729   1.73512 247 249 248
-0.482876  0.438459   1.25445 131 131 123
-0.134409 -0.189068   1.47873 33 24 15
-1.99932 -1.83721   6.4784 46 36 27
-0.364318  0.449638   1.24627 228 228 228
 -0.196318 -0.0850045    1.47906 49 29 22
-0.287823  0.454728   1.31543 182 182 182
-0.431924   0.43176   1.22501 170 170 162
-0.394826  0.422354   1.29048 200 200 200
 -0.179631 -0.0923325    1.47996 58 48 39
-0.350918  0.412244   1.31362 159 159 157
  0.158145 -0.0162085    1.60401 236 200 176
0.0474233 -0.152956   1.49646 208 169 140
-0.36643 0.474687  1.20831 139 137 138
-0.252537  0.373877   1.45526 181 180 176
-0.243515   0.33359   1.48831 126 93 74
-0.253341 -0.341297   1.66473 177 173 161
-0.384692  0.429788   1.23946 248 248 248
1.06662 1.17561 3.77831 169 168 166
-0.361709  0.349828   1.46019 186 185 181
1.08924 1.30415 3.46186 227 229 205
 1.2061 1.11698  4.0437 155 155 145
-0.380957  0.401003   1.29735 205 205 203
-0.392366  0.342993   1.46951 174 170 159
-0.50235 0.444073  1.24766 167 163 154
-0.404962  0.392227   1.36173 218 219 214
-0.319825  0.150155   1.69512 27 18 19
-0.307586  0.386787   1.39115 219 219 217
 -0.140422 -0.0788997    1.44729 65 37 23
-1.25161 0.957046  6.43263 52 52 42
-0.449402  0.449032   1.21342 145 146 141
-0.201594 -0.134928   1.49241 50 36 27
1.10723 1.07627  3.6824 137 136 132
-1.59311  1.33175  6.71571 79 75 66
-1.90105 0.961529  6.77097 57 50 42
-0.476418  0.438796   1.23934 172 172 164
-0.401447  0.410426   1.29345 208 208 208
-0.192335 -0.217886   1.50383 49 38 32
1.06345 1.21092  3.4451 55 55 55
-0.0934747   0.472755    1.55466 231 204 187
-0.219012 -0.185745   1.51045 64 54 45
0.187602 0.267118   1.7093 113 108 102
-0.208626  0.515213   1.26585 175 175 175
  0.147695 -0.0315169    1.57046 78 60 40
-0.372046  0.476428   1.20886 217 222 218
-0.0583632  -0.162433    1.47532 64 55 48
-0.191578  0.531532   1.25941 233 233 233
-0.0679433   0.210664    1.49385 151 129 108
1.16091 1.11646 3.70791 211 213 210
-0.399512  0.382309   1.38016 193 193 191
-0.0847224  -0.049952    1.47945 23 12 6
-0.41572 0.420425  1.48332 200 195 189
 0.121114 -0.196864   1.55607 75 60 53
-0.271569  0.110782   1.57349 90 76 67
-0.043164 0.0990268   1.47343 126 103 87
-0.36227 0.392461  1.50922 218 218 210
-0.174176 -0.134768   1.47872 58 41 33
-0.287323   0.38845   1.39709 187 187 185
-0.325612  0.436116   1.29627 173 175 174
-0.417777  0.336129    1.6132 157 151 139
0.0785113 -0.232031   1.54364 52 45 39
-0.328659  0.145778   1.71386 118 116 104
0.130596 0.277065  1.57195 220 188 165
-0.226225  -0.17388    1.5031 55 45 36
-0.168197  0.480511   1.45649 225 225 225
-0.298648   0.40843   1.38262 153 155 154
-0.182661  0.416965   1.50002 244 245 239
-0.455784  0.440554   1.21253 161 161 153
-0.341185  0.404796   1.32006 174 174 174
-1.53185  1.27732  7.02733 56 56 46
-0.226199  -0.15038   1.49843 61 47 38
1.07173 1.35306 3.37474 171 169 146
-0.472276  0.442693   1.24739 142 139 130
-0.224998 -0.251337   1.53293 34 25 18
  0.185459 -0.0346614    1.61564 57 17 17
 0.114043 -0.207697   1.55894 73 56 49
-0.301376  0.429864   1.37887 215 215 215
-0.473788  0.447226   1.22389 173 173 165
-0.0821337   0.537686    1.44108 199 199 199
-0.160309  0.504322    1.3771 201 201 201
-0.451587  0.452915    1.2108 168 167 163
-0.168062 -0.263267     1.509 71 63 60
-0.0423776   0.553745    1.55019 219 219 219
-0.132753 0.0831913   1.48418 124 72 51
  -1.6495 0.0748145   5.32148 84 57 46
1.30972 1.06625 3.86772 153 154 149
-0.468553  0.434477   1.24139 182 183 178
-0.411019  0.454756   1.22489 188 185 180
1.14796 1.15013 3.70798 196 196 196
  0.185162 -0.0449511    1.60228 61 19 21
1.49702 1.52773 5.53324 147 147 137
-0.177006  0.386018   1.48668 195 164 136
1.06043 1.35375 3.40106 225 221 196
 -0.26949 -0.107912   1.52875 66 56 46
-0.175741  0.455373    1.4485 227 227 227
-0.172889  0.465209   1.49658 217 217 215
-0.343301  0.434027   1.25192 207 207 207
-0.0681695  0.0385179    1.46826 116 97 83
-0.0082627   0.192283    1.50045 159 134 114
-0.0931171  -0.189744    1.46943 25 18 10
-0.179857   0.45442     1.485 215 215 213
-0.507419  0.442641    1.2634 128 124 115
-0.203104 -0.159368   1.48827 55 41 32
-0.0343427   0.288301    1.52922 155 130 110
0.0343096  0.237207   1.51316 125 98 77
   0.18752 -0.0434481    1.63198 151 122 106
-0.145078  0.472589   1.49271 252 252 250
 -0.153054 -0.0887476    1.46762 75 55 44
-0.461021   0.44941   1.21379 174 173 169
-1.6146 1.61776 6.90496 68 67 63
  0.0966042 -0.00547849     1.52845 234 213 186
-0.257722 0.0204797   1.52734 43 30 22
-0.262976 -0.149779   1.52018 64 54 45
-0.362394  0.321776   1.52796 193 187 175
-0.342012  0.437842   1.28683 201 201 201
-0.0505219  -0.129272    1.46358 45 35 26
-0.207277  0.494065   1.30626 201 201 201
-0.190366 -0.112009   1.49069 57 40 32
 -1.26697 0.0303654   5.23477 94 93 88
-0.0559142  -0.131968    1.46733 82 72 62
-0.43523 0.464915  1.43002 209 209 207
-0.198419  0.443246   1.46689 223 222 220
-0.0316589  -0.163558    1.46797 70 60 51
-0.122662  0.436567   1.48556 250 251 245
-0.309166  0.336484   1.45371 192 197 193
-0.251888 -0.122907   1.51267 58 44 35
 1.2293 1.13507 3.85566 121 120 116
-0.275909  0.403122    1.4305 217 217 215
-0.48352 0.431714  1.27292 185 185 183
-0.412173  0.394686   1.35788 143 138 132
-1.07305 0.703828  4.89699 98 94 83
1.30677 1.17071 3.94593 153 154 149
-0.344571  0.441233   1.27974 159 159 159
-0.406826  0.383501    1.3851 154 153 149
0.154619 0.123324  1.55815 175 117 97
-0.235805  0.448394   1.44964 182 182 180
0.063012 0.247859  1.52553 128 102 79
-1.28201 0.918818  4.78767 79 75 64
-0.0311078    0.35066    1.60037 217 185 162
-0.404564  0.453314   1.21834 135 134 129
-0.256169  0.416217   1.39183 218 218 216
-0.210807 -0.049919   1.45995 174 86 74
-0.355488  0.418072   1.30223 168 168 166
-0.00494145    0.217665     1.49225 133 106 85
-0.257364  0.432168   1.32655 213 213 213
  -1.0024 0.0213295   5.34276 73 73 63
-0.635456 0.0306921    5.3419 67 68 63
-0.382226  0.419561   1.30425 171 171 169
   0.147161 -0.00401403     1.59585 186 132 108
-0.463655  0.474673   1.19629 163 163 155
-0.23987 0.415318  1.39854 237 237 235
-0.159637  -0.17028   1.49726 50 40 30
-0.165387  0.501309   1.37341 224 226 225
-0.224576  0.512709   1.25551 242 242 242
0.0155701    0.1047   1.47475 117 91 68
-0.258057 0.0546205   1.52853 51 41 31
0.0179833 -0.140191   1.48002 146 120 105
 -1.00628 0.0233677   4.03748 115 111 102
0.00531301   0.278721    1.53061 166 141 119
-0.35501 0.433636  1.27282 162 162 162
-0.0586458  0.0420163    1.46266 109 90 76
-0.264277  0.118094   1.54961 60 44 31
-0.400352  0.452411   1.21899 191 188 181
-0.393504  0.291093   1.61674 63 60 51
-0.195668 -0.238591   1.51371 56 47 40
-1.74326 0.106997  5.48514 42 15 6
-0.347855  0.416502   1.30579 174 174 172
1.07419 1.22244 3.42666 216 213 196
-0.193443  -0.14188   1.51167 85 71 62
0.185539 -1.23087  4.04527 168 164 153
  -1.1113 0.0198707   5.19646 67 67 59
