ply
format ascii 1.0
element vertex 189
property float x
property float y
property float z
property uchar red
property uchar green
property uchar blue
end_header
 0.000121172 -0.000344829  0.000849625 0 255 0
0.931747 0.157743 0.326979 0 255 0
-0.037947 -0.016708   1.66609 255 255 255
 -0.162727 -0.0828943    1.65721 255 255 255
   -0.1571 -0.0145144    1.65948 255 255 255
 -0.190235 -0.0819898    1.65394 255 255 255
-0.338674  0.419146   1.60996 255 255 255
-0.208635 0.0189871   1.64452 255 255 255
 0.182795 -0.763805    3.1492 255 255 255
-0.206187  0.458229   1.66157 255 255 255
-0.151069  0.507403   1.68817 255 255 255
 -0.161251 -0.0446114    1.66285 255 255 255
-0.157956 0.0591621   1.66752 255 255 255
-0.171645  0.508138   1.67399 255 255 255
 0.201712 -0.719257   3.14251 255 255 255
-0.0917458    0.22686    1.69412 255 255 255
0.0669793 -0.167185   1.69611 255 255 255
-0.0848416 -0.0178539    1.66477 255 255 255
-0.107545 -0.150487   1.66437 255 255 255
-0.20356 0.448811  1.66196 255 255 255
 0.216124 -0.771756   3.14698 255 255 255
 0.215122 -0.863237   3.15095 255 255 255
-0.225751  0.445286   1.65542 255 255 255
 0.204828 -0.663628   3.14038 255 255 255
-0.0896373  0.0182267    1.66249 255 255 255
 0.236302 -0.777252   3.15393 255 255 255
0.0215876  0.142261   1.68184 255 255 255
 0.217978 -0.714738   3.14261 255 255 255
-0.111052  -0.13961   1.66584 255 255 255
 0.267446 -0.745024   3.14112 255 255 255
 0.199267 -0.782219   3.14358 255 255 255
 0.201623 -0.742075   3.14438 255 255 255
-0.0253107  -0.282816    1.68748 255 255 255
-0.316795   0.48354   1.56991 255 255 255
 0.0954501 -0.0414106    1.71669 255 255 255
0.175309 0.186789  1.77349 255 255 255
0.00373092  -0.132129    1.68231 255 255 255
 0.0496764 -0.0422084    1.69042 255 255 255
-0.401272  0.416736   1.57779 255 255 255
 0.165533 0.0884685   1.76789 255 255 255
 -0.213725 -0.0647943    1.64727 255 255 255
-0.29378 0.479665  1.58873 255 255 255
  0.142727 -0.0609507     1.7508 255 255 255
-0.20512 0.516543  1.64523 255 255 255
-0.425298   0.40775   1.56355 255 255 255
0.129289 0.151754  1.72657 255 255 255
-0.00931087    0.556904     1.86954 255 255 255
-0.113945 0.0212084   1.66628 255 255 255
-0.400213  0.439503   1.54524 255 255 255
 -0.169961 0.00902293    1.65677 255 255 255
  -0.0211 -0.311933   1.70431 255 255 255
-0.198684  0.534124   1.61432 255 255 255
-0.168647  0.491375   1.67801 255 255 255
-0.35979  0.45835  1.55278 255 255 255
-0.0247795   0.577964    1.83314 255 255 255
-0.111819 -0.240219   1.66696 255 255 255
-0.16543 0.574606  1.62178 255 255 255
-0.36903  0.36111  1.63888 255 255 255
-0.151069  0.507403   1.68817 255 255 255
-0.0403926  -0.279471    1.68727 255 255 255
-0.313128  0.591412   1.47474 255 255 255
-0.0689547 -0.0587622    1.66457 255 255 255
-0.0238683   0.633747    1.78429 255 255 255
-0.0215295   0.544576     1.8806 255 255 255
0.0814952  -0.16717   1.70552 255 255 255
    -0.2198 0.000425037     1.64254 255 255 255
-0.221824  0.516974   1.61717 255 255 255
-0.323328  0.568233   1.47782 255 255 255
0.00906695   0.562468    1.88845 255 255 255
0.189995 0.102712  1.77409 255 255 255
-0.135461 -0.297196   1.67349 255 255 255
-0.0126502   0.525908    1.89945 255 255 255
-0.290016  0.497788   1.56859 255 255 255
-0.0370491   0.631471    1.76592 255 255 255
-0.149864   0.18634   1.68159 255 255 255
-0.195082  0.605087    1.5667 255 255 255
-0.0203364  -0.131644     1.6742 255 255 255
   0.137951 -0.00482795     1.78605 255 255 255
0.0723921  0.646152   1.94024 255 255 255
-0.242695  0.520626   1.59067 255 255 255
-0.336048   0.45216   1.57178 255 255 255
-0.00212797    0.596608      1.8478 255 255 255
-0.184444  0.527789   1.65082 255 255 255
-0.333773  0.565904   1.47573 255 255 255
0.0376116  0.585428   1.91978 255 255 255
-0.248299  0.593559   1.51757 255 255 255
-0.378366  0.363991   1.62581 255 255 255
-0.0968008  -0.148402    1.66289 255 255 255
-0.368404  0.464363   1.54594 255 255 255
-0.360587  0.438649   1.56973 255 255 255
0.108916 0.663777  3.17815 255 255 255
-0.426446   0.40506   1.57378 255 255 255
0.0605807  0.639273   1.92491 255 255 255
 -0.16969 -0.130174   1.66428 255 255 255
0.0371615 -0.183595   1.68824 255 255 255
-0.0421085  -0.200557    1.66884 255 255 255
-0.308902  0.469876   1.58388 255 255 255
-0.171429  0.524104   1.66703 255 255 255
  0.110116 -0.0949735    1.70218 255 255 255
-0.128611  0.111695   1.66834 255 255 255
-0.284849  0.434001   1.63207 255 255 255
-0.218672  0.428358   1.65988 255 255 255
-0.0356131 -0.0787613    1.66987 255 255 255
-0.288904  0.534622   1.49729 255 255 255
 0.170749 -0.706456   3.14402 255 255 255
-0.372891  0.498591    1.5294 255 255 255
-0.315777  0.490611   1.55977 255 255 255
0.238685 0.470034  2.14835 255 255 255
-0.401897  0.424586   1.56521 255 255 255
-0.173057  0.543806   1.64725 255 255 255
-0.0539149    0.23023    1.69138 255 255 255
0.187751 0.122031   1.7772 255 255 255
-0.0244801     0.5606    1.84139 255 255 255
-0.00330802    0.192392     1.68807 255 255 255
-0.316094  0.501242   1.55228 255 255 255
0.0169944  0.623442   1.84642 255 255 255
-0.13784 0.562382  1.67618 255 255 255
-0.382739  0.376842   1.61024 255 255 255
-0.132749  0.280177   1.70026 255 255 255
-0.23484 0.443835  1.64848 255 255 255
0.000184878    0.620495     1.83666 255 255 255
-0.288578  0.482061   1.59897 255 255 255
0.0172813  0.297703   1.73189 255 255 255
-0.0935756   0.346043    1.72772 255 255 255
 0.219223 -0.734492   3.14476 255 255 255
-0.145988  0.613591    1.6203 255 255 255
0.108247 0.677961  3.17597 255 255 255
-0.11459 0.236381  1.69453 255 255 255
 0.205233 -0.689161   3.13982 255 255 255
-0.0253948   0.172813     1.6776 255 255 255
0.0973431  0.269254   1.73454 255 255 255
-0.0444413   0.198903    1.68258 255 255 255
-0.362684   0.46838   1.54863 255 255 255
-0.117165  0.613494   1.65951 255 255 255
-0.136177  0.575544   1.66632 255 255 255
-0.415234  0.425995   1.54649 255 255 255
-0.280595  0.500071   1.57427 255 255 255
-0.037616  0.566066   1.83206 255 255 255
 0.203289 -0.763297   3.14471 255 255 255
-0.31402 0.465194  1.58273 255 255 255
-0.354639   0.37982    1.6242 255 255 255
-0.266887  0.513104   1.57147 255 255 255
-0.233483  0.438633   1.65105 255 255 255
-0.000589699     0.524365      1.91518 255 255 255
-0.377637   0.43521   1.56936 255 255 255
-0.198478  0.499839   1.65297 255 255 255
-0.326019   0.58555   1.46714 255 255 255
 -0.11854 -0.108682   1.66717 255 255 255
-0.218967 -0.412082   1.78446 255 255 255
 0.201712 -0.719257   3.14251 255 255 255
-0.257035 -0.402309   1.76822 255 255 255
-0.145794  0.557212    1.6693 255 255 255
-0.271882  0.527004     1.555 255 255 255
-0.0711527   0.531742    1.81235 255 255 255
-0.0887125  -0.231607    1.66473 255 255 255
-0.0989005   0.282303      1.711 255 255 255
-0.0830548   0.352467    1.73367 255 255 255
-0.00381127    0.137937     1.67676 255 255 255
-0.129882 -0.495903   2.10651 255 255 255
-0.223107   0.31372   1.66652 255 255 255
-0.0801125   0.552462    1.74622 255 255 255
-0.387937  0.405908   1.59501 255 255 255
-0.0969265   0.055049    1.66409 255 255 255
-0.123156  0.279273   1.70367 255 255 255
-0.191238  0.527884   1.64362 255 255 255
-0.393643  0.428143   1.56734 255 255 255
-0.011528 -0.145307   1.67505 255 255 255
 0.40731 0.287714  1.41932 255 255 255
-0.014374  0.127084   1.67437 255 255 255
-0.247448  0.508069   1.60873 255 255 255
0.158305 0.607014  3.19526 255 255 255
-0.0952996 -0.0047289    1.66335 255 255 255
-0.0384349  -0.071068    1.66826 255 255 255
-0.336845  0.572241   1.47124 255 255 255
-0.0463979   0.151624    1.67328 255 255 255
-0.296629  0.460383   1.61599 255 255 255
-0.135188  0.271705   1.69983 255 255 255
-0.42035 0.439401  1.53198 255 255 255
-0.00577448   -0.285165     1.69568 255 255 255
-0.342392  0.439437   1.59692 255 255 255
 -0.213725 -0.0647943    1.64727 255 255 255
0.265184 0.421585  2.14342 255 255 255
-0.107545 -0.150487   1.66437 255 255 255
-0.316094  0.501242   1.55228 255 255 255
0.0415989 -0.283476   1.69603 255 255 255
-0.354146  0.493766   1.54073 255 255 255
-0.23484 0.443835  1.64848 255 255 255
0.163265 0.112847  1.76955 255 255 255
0.090706 0.675398  3.19396 255 255 255
