ply
format ascii 1.0
element vertex 189
property float x
property float y
property float z
property uchar red
property uchar green
property uchar blue
end_header
0 0 0 0 255 0
0.931668 0.157001 0.327637 0 255 0
-0.0377569 -0.0167588    1.66561 255 255 255
 -0.162548 -0.0829831    1.65682 255 255 255
 -0.156954 -0.0146002    1.65915 255 255 255
 -0.190081 -0.0820034    1.65358 255 255 255
-0.338913  0.419186   1.61021 255 255 255
-0.208526 0.0188275   1.64429 255 255 255
 0.183255 -0.762489   3.14408 255 255 255
-0.206333  0.458195   1.66172 255 255 255
 -0.1512 0.507376  1.68829 255 255 255
 -0.161096 -0.0446516    1.66249 255 255 255
-0.157848 0.0590851   1.66724 255 255 255
-0.171793   0.50812   1.67415 255 255 255
 0.20215 -0.71808  3.13743 255 255 255
-0.091686  0.226768   1.69391 255 255 255
0.0672569 -0.167162   1.69531 255 255 255
-0.0846656 -0.0179186    1.66435 255 255 255
-0.107317 -0.150516   1.66386 255 255 255
-0.203698  0.448763    1.6621 255 255 255
 0.216563 -0.770491   3.14174 255 255 255
 0.215599 -0.861817   3.14547 255 255 255
-0.225904  0.445261   1.65558 255 255 255
 0.205212 -0.662423   3.13548 255 255 255
-0.0894804  0.0181523    1.66211 255 255 255
  0.23671 -0.775947   3.14861 255 255 255
0.0217253  0.142197   1.68141 255 255 255
 0.218402 -0.713595   3.13749 255 255 255
-0.110831 -0.139629   1.66533 255 255 255
 0.267818 -0.743834   3.13581 255 255 255
0.199744 -0.78098  3.13833 255 255 255
0.202083 -0.74091  3.13922 255 255 255
-0.0250054  -0.282726     1.6867 255 255 255
-0.317071  0.483673    1.5702 255 255 255
 0.0956907 -0.0414691    1.71594 255 255 255
0.175449 0.186776  1.77278 255 255 255
0.00398214  -0.132128    1.68165 255 255 255
0.0499036 -0.042246   1.68977 255 255 255
-0.401578  0.416625   1.57815 255 255 255
 0.165733 0.0883363    1.7671 255 255 255
 -0.213594 -0.0648083    1.64697 255 255 255
-0.294032  0.479692   1.58903 255 255 255
  0.142987 -0.0610405    1.74991 255 255 255
-0.205305  0.516551   1.64544 255 255 255
-0.425619   0.40794   1.56385 255 255 255
0.129462 0.151606  1.72597 255 255 255
-0.00934907    0.556776     1.86941 255 255 255
-0.113796 0.0211203   1.66592 255 255 255
-0.40055 0.439499  1.54562 255 255 255
-0.169832 0.0089226   1.65648 255 255 255
-0.0207824  -0.311833    1.70349 255 255 255
-0.198888  0.534143   1.61457 255 255 255
-0.168782  0.491347   1.67814 255 255 255
 -0.3601 0.458379  1.55314 255 255 255
-0.0248375   0.577811     1.8331 255 255 255
-0.11156 -0.24017  1.66637 255 255 255
-0.165631  0.574637   1.62204 255 255 255
-0.369242  0.361086   1.63909 255 255 255
 -0.1512 0.507376  1.68829 255 255 255
-0.040092 -0.279376   1.68652 255 255 255
-0.313522  0.591564    1.4752 255 255 255
-0.0687553 -0.0588068     1.6641 255 255 255
-0.0239667   0.633625    1.78436 255 255 255
-0.0215757   0.544593    1.88042 255 255 255
0.0817709 -0.167129   1.70469 255 255 255
  -0.219693 0.000292637     1.64231 255 255 255
-0.222032  0.516997   1.61742 255 255 255
-0.323718  0.568314    1.4783 255 255 255
0.00903708   0.562322    1.88829 255 255 255
0.190168 0.102705  1.77328 255 255 255
 -0.13518 -0.297151   1.67286 255 255 255
-0.0126686   0.525774    1.89926 255 255 255
-0.290285  0.497711   1.56895 255 255 255
-0.0371591    0.63138    1.76601 255 255 255
-0.149812  0.186229   1.68142 255 255 255
-0.195344  0.605163   1.56705 255 255 255
-0.0200928  -0.131646    1.67359 255 255 255
   0.138174 -0.00485315     1.78519 255 255 255
0.0723614  0.645874   1.94009 255 255 255
-0.242933  0.520631   1.59097 255 255 255
-0.336325  0.452122   1.57212 255 255 255
-0.00218968    0.596512     1.84773 255 255 255
-0.184619  0.527792   1.65102 255 255 255
-0.334168   0.56605   1.47618 255 255 255
0.0375809  0.585313   1.91958 255 255 255
-0.248619  0.593642   1.51798 255 255 255
-0.378593   0.36398   1.62604 255 255 255
-0.0965706   -0.14843    1.66237 255 255 255
-0.368729  0.464385   1.54631 255 255 255
-0.360876  0.438652   1.57006 255 255 255
0.108995 0.663382  3.17611 255 255 255
-0.426766  0.405103   1.57411 255 255 255
0.0605502  0.638977   1.92479 255 255 255
-0.169496 -0.130208   1.66385 255 255 255
0.0374381 -0.183559   1.68748 255 255 255
-0.0418423  -0.200533    1.66819 255 255 255
-0.309162  0.469913   1.58418 255 255 255
-0.171588  0.524095   1.66721 255 255 255
  0.110368 -0.0949673    1.70138 255 255 255
-0.128513  0.111594   1.66808 255 255 255
-0.285046  0.434011   1.63228 255 255 255
-0.218808  0.428323   1.66002 255 255 255
-0.0353938 -0.0787937    1.66933 255 255 255
-0.289222   0.53477   1.49765 255 255 255
 0.171226 -0.705328   3.13903 255 255 255
-0.373249  0.498709   1.52979 255 255 255
-0.316069  0.490549   1.56014 255 255 255
 0.23868 0.470266  2.14729 255 255 255
-0.402214  0.424649   1.56555 255 255 255
-0.173234  0.543812   1.64746 255 255 255
-0.0538433   0.230156    1.69113 255 255 255
0.187926 0.121966  1.77641 255 255 255
-0.024528  0.560449   1.84132 255 255 255
-0.00320127    0.192332     1.68772 255 255 255
-0.316398  0.501222   1.55266 255 255 255
0.0169334  0.623273   1.84638 255 255 255
-0.137999  0.562382   1.67636 255 255 255
-0.382984  0.376926   1.61047 255 255 255
-0.132735  0.280086   1.70013 255 255 255
-0.235001  0.443819   1.64865 255 255 255
0.000118375    0.620316     1.83665 255 255 255
-0.288823  0.482089   1.59925 255 255 255
0.0173534  0.297622   1.73157 255 255 255
-0.093572  0.345959   1.72759 255 255 255
 0.219639 -0.733267   3.13961 255 255 255
-0.146201  0.613643   1.62057 255 255 255
0.108313 0.677626  3.17394 255 255 255
-0.114546  0.236288   1.69435 255 255 255
0.205657 -0.68804  3.13481 255 255 255
-0.0252848   0.172728    1.67728 255 255 255
0.0974473  0.269187   1.73409 255 255 255
-0.0443492    0.19881     1.6823 255 255 255
-0.363006   0.46841     1.549 255 255 255
-0.117343  0.613502   1.65973 255 255 255
-0.136344  0.575543   1.66652 255 255 255
-0.415573  0.426056   1.54685 255 255 255
-0.280857  0.500055    1.5746 255 255 255
-0.0376745   0.565923    1.83202 255 255 255
 0.203734 -0.762021   3.13953 255 255 255
-0.314282  0.465125   1.58306 255 255 255
-0.354858  0.379786   1.62443 255 255 255
-0.267147  0.513051   1.57181 255 255 255
-0.233639  0.438613   1.65121 255 255 255
-0.000569558     0.523993      1.91498 255 255 255
-0.377937  0.435266   1.56969 255 255 255
-0.198646  0.499829   1.65316 255 255 255
-0.326405  0.585853   1.46754 255 255 255
-0.118333 -0.108732    1.6667 255 255 255
-0.218603 -0.412044   1.78365 255 255 255
 0.20215 -0.71808  3.13743 255 255 255
-0.256694 -0.402287   1.76749 255 255 255
-0.145956   0.55721   1.66949 255 255 255
-0.272162  0.526954   1.55537 255 255 255
-0.0712182    0.53166    1.81231 255 255 255
-0.088451 -0.231545   1.66412 255 255 255
-0.0988695   0.282215    1.71083 255 255 255
-0.0830489   0.352387    1.73353 255 255 255
-0.00367793    0.137858     1.67638 255 255 255
-0.129402 -0.495574   2.10495 255 255 255
-0.223174  0.313628   1.66655 255 255 255
-0.0802092   0.552401    1.74627 255 255 255
-0.388215  0.405868   1.59532 255 255 255
-0.0967896  0.0549682    1.66375 255 255 255
-0.123137  0.279183   1.70353 255 255 255
-0.19142 0.527892  1.64383 255 255 255
-0.393952  0.428243   1.56765 255 255 255
-0.0112753  -0.145305    1.67441 255 255 255
0.407478 0.287394  1.41877 255 255 255
-0.0142396   0.127007    1.67399 255 255 255
-0.247673    0.5081     1.609 255 255 255
0.158349  0.60688  3.19288 255 255 255
 -0.0951331 -0.00480458     1.66296 255 255 255
-0.0382206  -0.071103    1.66773 255 255 255
-0.337248  0.572409   1.47169 255 255 255
-0.0462873   0.151546    1.67297 255 255 255
-0.296858  0.460414   1.61625 255 255 255
-0.135172  0.271612    1.6997 255 255 255
-0.420706  0.439571   1.53233 255 255 255
-0.00546259   -0.285076     1.69486 255 255 255
-0.342655   0.43943   1.59722 255 255 255
 -0.213594 -0.0648083    1.64697 255 255 255
0.265224 0.421535  2.14235 255 255 255
-0.107317 -0.150516   1.66386 255 255 255
-0.316398  0.501222   1.55266 255 255 255
0.0419067 -0.283358   1.69516 255 255 255
-0.354483  0.493768   1.54113 255 255 255
-0.235001  0.443819   1.64865 255 255 255
 0.16346 0.112688  1.76879 255 255 255
0.0907903  0.674994   3.19195 255 255 255
